19.73681640625 20.7567138671875 -54.7958984375
-11.1064453125 5.91162109375 22.4229736328125
-13.457275390625 1.033935546875 11.8822021484375
-30.331298828125 0.421142578125 8.3048095703125
3.76904296875 23.419189453125 -10.43603515625
14.297119140625 16.6131591796875 -43.060791015625
-24.874267578125 0.2874755859375 15.3228759765625
10.836181640625 23.1375732421875 -14.911865234375
-25.16552734375 0.3131103515625 12.4312744140625
1.205322265625 9.6136474609375 -23.859130859375
-26.65673828125 0.312744140625 14.7958984375
4.209716796875 26.1793212890625 -9.313232421875
-16.899169921875 2.9749755859375 4.4368896484375
5.879638671875 11.677734375 -29.863037109375
-11.513916015625 2.8551025390625 5.18212890625
-27.029541015625 -1.59375 18.99169921875
-14.109375 -0.16650390625 15.1998291015625
-29.58349609375 1.8037109375 5.767822265625
7.52880859375 21.189208984375 -9.76513671875
-22.16748046875 0.086669921875 8.5606689453125
4.407958984375 22.8536376953125 -15.8648681640625
9.124267578125 22.8389892578125 -16.33251953125
10.361083984375 20.291748046875 -52.520263671875
-36.5205078125 -2.5694580078125 14.2244873046875
20.577392578125 18.0556640625 -46.7022705078125
4.98779296875 19.781982421875 -50.21435546875
-28.762939453125 -0.4923095703125 14.49462890625
12.76416015625 27.7816162109375 -7.63525390625
-21.92041015625 1.2144775390625 1.9072265625
-35.301513671875 -1.855712890625 10.9481201171875
4.32763671875 11.0518798828125 -28.0198974609375
-16.931640625 -1.2838134765625 18.433837890625
9.47802734375 21.552734375 -11.1209716796875
-28.057373046875 1.6497802734375 8.47265625
15.068603515625 32.080810546875 -20.510009765625
11.261962890625 12.1829833984375 -31.126220703125
-26.95751953125 3.0418701171875 5.015625
21.48095703125 15.5439453125 -38.765380859375
6.0859375 21.5628662109375 -11.8280029296875
-29.70166015625 -0.2811279296875 12.947998046875
-31.30859375 -0.959228515625 16.707275390625
-20.238037109375 -1.967041015625 23.306884765625
-22.604736328125 -2.220458984375 22.5074462890625
-29.626220703125 0.9188232421875 21.0382080078125
-24.553466796875 -0.6151123046875 17.9539794921875
16.90869140625 19.26611328125 -50.4371337890625
22.19921875 17.98779296875 -44.6944580078125
-21.972900390625 -1.442626953125 8.41845703125
-1.962158203125 20.7315673828125 -52.1466064453125
-1.372314453125 10.305419921875 -24.8394775390625
7.70556640625 11.3145751953125 -28.79443359375
4.390625 23.6336669921875 -60.5599365234375
-13.22509765625 3.6724853515625 2.3192138671875
-24.649169921875 -2.4346923828125 20.4041748046875
-33.288330078125 2.4532470703125 5.056640625
-22.732177734375 -3.06005859375 20.60888671875
-2.866943359375 23.57373046875 -60.236328125
20.67822265625 18.5272216796875 -48.260986328125
-22.659423828125 1.420166015625 6.68017578125
-24.8369140625 -1.52978515625 19.0145263671875
11.2568359375 21.7801513671875 -55.9671630859375
16.560546875 15.8956298828125 -41.04443359375
1.40869140625 10.355712890625 -25.4315185546875
-21.438720703125 1.905517578125 24.8787841796875
-22.146484375 2.904541015625 22.306884765625
10.373779296875 25.1973876953125 -9.8167724609375
4.083740234375 12.2901611328125 -31.9088134765625
-18.513671875 -1.26953125 15.7667236328125
12.228271484375 18.2130126953125 -47.6903076171875
16.3876953125 30.379150390625 -18.5318603515625
3.22509765625 18.602294921875 -47.6282958984375
-4.321044921875 11.5799560546875 -27.682373046875
-36.716796875 -3.7725830078125 16.982421875
22.142333984375 13.666748046875 -31.484130859375
-16.190185546875 0.9566650390625 11.5367431640625
15.54541015625 29.01904296875 -15.29736328125
13.990478515625 15.3258056640625 -39.4085693359375
-34.201904296875 0.0244140625 9.9390869140625
19.21337890625 15.239013671875 -40.523193359375
-16.23828125 2.9007568359375 6.895263671875
10.070556640625 16.92236328125 -43.1375732421875
-33.4443359375 1.35546875 7.844482421875
4.457275390625 29.22021484375 -16.3997802734375
-21.5595703125 -4.27978515625 16.0557861328125
22.7138671875 15.3631591796875 -34.80029296875
-14.89306640625 3.735107421875 20.9244384765625
5.89013671875 31.9471435546875 -19.5931396484375
4.4189453125 13.699462890625 -35.5325927734375
2.519287109375 26.194580078125 -12.1629638671875
3.887451171875 27.28759765625 -8.1337890625
-11.179931640625 1.334228515625 10.9908447265625
10.320068359375 11.91455078125 -29.49169921875
-25.61962890625 2.509765625 7.4227294921875
-0.3935546875 17.2318115234375 -43.6658935546875
2.643310546875 27.1610107421875 -10.5865478515625
-23.2333984375 -1.257568359375 16.5936279296875
4.825927734375 22.4525146484375 -14.4962158203125
3.271728515625 27.258544921875 -14.3609619140625
-8.1611328125 -1.7017822265625 14.8804931640625
7.530517578125 23.19384765625 -14.736083984375
12.892333984375 32.85302734375 -21.64794921875
-26.104248046875 1.138671875 20.8072509765625
-22.99169921875 -2.0277099609375 17.9552001953125
-13.70166015625 -0.52685546875 16.46533203125
6.2900390625 26.1826171875 -7.4447021484375
0.06591796875 10.8236083984375 -27.068115234375
9.490966796875 18.7633056640625 -48.6239013671875
-5.5869140625 20.9879150390625 -51.3795166015625
10.802734375 32.3463134765625 -20.6553955078125
21.468994140625 13.7545166015625 -34.136474609375
-15.31591796875 -1.460205078125 17.7679443359375
8.588134765625 25.027587890625 -7.6297607421875
-14.897705078125 2.5263671875 4.1600341796875
22.626953125 14.4398193359375 -30.38916015625
2.738037109375 10.2313232421875 -25.67822265625
-23.971435546875 1.9080810546875 4.6983642578125
-13.233642578125 2.65380859375 6.8243408203125
3.10546875 11.5255126953125 -28.3326416015625
-25.632080078125 1.8251953125 10.1026611328125
9.149658203125 17.2601318359375 -44.4158935546875
-17.2109375 1.303466796875 8.6788330078125
12.931396484375 26.6363525390625 -5.1527099609375
-27.28564453125 2.65673828125 3.4609375
20.2744140625 13.4246826171875 -34.7254638671875
19.67041015625 16.8958740234375 -44.7884521484375
-16.608154296875 0.091552734375 15.5875244140625
-11.050537109375 0.2215576171875 12.8905029296875
-21.3662109375 -1.545654296875 6.214111328125
8.254150390625 23.595458984375 -9.0693359375
13.297607421875 33.2647705078125 -24.61279296875
-16.295654296875 4.23876953125 22.33203125
17.0888671875 13.00537109375 -29.8052978515625
-29.78857421875 -1.716064453125 17.8350830078125
-23.596435546875 -0.043212890625 12.2210693359375
-5.041748046875 17.218017578125 -42.620849609375
-17.889892578125 -2.012939453125 20.8311767578125
-8.74072265625 1.4580078125 3.24267578125
-2.414794921875 23.1121826171875 -58.3291015625
-2.2978515625 21.867919921875 -56.126220703125
-4.31640625 22.9490966796875 -57.364013671875
-33.235107421875 -3.45068359375 20.4307861328125
1.315673828125 13.3828125 -31.5924072265625
3.373291015625 22.8037109375 -11.5791015625
21.2333984375 14.77001953125 -37.121337890625
-23.373046875 1.3544921875 21.1334228515625
13.5810546875 28.14306640625 -11.060546875
22.96435546875 16.5526123046875 -38.8751220703125
-22.823974609375 2.18701171875 1.86865234375
-12.864990234375 1.5968017578125 10.8135986328125
-10.74658203125 0.580322265625 9.785888671875
13.570556640625 17.4700927734375 -44.9896240234375
4.1201171875 21.6134033203125 -12.8143310546875
-22.402587890625 -1.6405029296875 13.5885009765625
2.875732421875 23.4310302734375 -60.143310546875
-23.16064453125 0.503173828125 9.923828125
6.33203125 23.56396484375 -14.13134765625
-32.032958984375 0.9249267578125 10.612060546875
1.837158203125 24.0164794921875 -58.6473388671875
-33.09765625 -0.6669921875 14.88720703125
11.59912109375 17.4224853515625 -45.004638671875
1.891357421875 14.499267578125 -36.1044921875
4.686767578125 16.5899658203125 -42.3197021484375
-10.61572265625 -2.3331298828125 20.0692138671875
13.6435546875 17.9893798828125 -47.0125732421875
-11.343505859375 -1.519287109375 17.9344482421875
-11.4130859375 -0.2760009765625 16.0185546875
16.345458984375 16.81494140625 -43.09912109375
-22.10107421875 -0.1458740234375 22.866943359375
-22.439453125 -1.1051025390625 10.96435546875
-25.21875 0.0643310546875 17.1021728515625
16.7978515625 29.58251953125 -15.2021484375
-0.033935546875 22.7611083984375 -56.9097900390625
-5.888671875 14.978271484375 -35.9013671875
6.751953125 22.8726806640625 -16.32958984375
15.66650390625 20.0684814453125 -52.25830078125
2.0380859375 15.4112548828125 -39.1224365234375
-2.669921875 10.675048828125 -25.5574951171875
-16.188232421875 5.1373291015625 23.8333740234375
-36.17724609375 -0.184326171875 16.171630859375
-1.330322265625 19.51220703125 -49.6278076171875
-34.3515625 -1.2813720703125 13.57177734375
15.525634765625 28.9251708984375 -9.7652587890625
18.0146484375 15.9290771484375 -41.3709716796875
12.610595703125 13.7716064453125 -35.4813232421875
8.74755859375 13.942626953125 -36.5316162109375
-30.86572265625 1.563720703125 6.9013671875
-0.1083984375 11.85986328125 -29.0946044921875
11.934326171875 13.1514892578125 -34.2603759765625
-35.81103515625 -2.560546875 20.707275390625
-22.181640625 -2.2652587890625 9.89111328125
-14.5693359375 -1.2088623046875 19.6923828125
-36.500244140625 -2.1700439453125 12.8951416015625
-25.677978515625 -2.985107421875 21.1015625
15.968994140625 17.4775390625 -45.5247802734375
-0.36083984375 14.9527587890625 -37.102783203125
19.763916015625 18.8170166015625 -49.075439453125
-24.035888671875 -0.8118896484375 15.3916015625
3.475341796875 24.783203125 -10.2264404296875
15.30126953125 18.913818359375 -49.9783935546875
-28.432861328125 -1.16650390625 16.2393798828125
6.352783203125 21.695068359375 -55.749267578125
5.464111328125 23.7164306640625 -9.0181884765625
-1.2548828125 24.1453857421875 -61.2568359375
7.023681640625 18.6494140625 -48.501708984375
8.27880859375 15.4512939453125 -39.1197509765625
15.45849609375 29.144775390625 -11.632568359375
15.0341796875 13.6201171875 -34.5806884765625
11.342529296875 20.1602783203125 -51.7681884765625
7.34375 17.83251953125 -46.024658203125
9.730712890625 13.7613525390625 -35.3194580078125
12.18603515625 15.8978271484375 -41.0159912109375
-4.194580078125 21.393798828125 -53.678955078125
-8.40625 0.444580078125 6.825927734375
10.15673828125 15.6988525390625 -40.9818115234375
-9.6953125 -1.470458984375 16.3731689453125
3.196044921875 14.478271484375 -37.298828125
-3.05419921875 15.54638671875 -38.49560546875
-33.38232421875 0.3682861328125 12.2271728515625
19.864501953125 13.822998046875 -36.125732421875
-9.45947265625 0.40673828125 10.01611328125
18.9287109375 12.4345703125 -33.2698974609375
-13.4267578125 -1.047119140625 21.56640625
-1.065673828125 18.2344970703125 -45.6312255859375
15.24755859375 29.046875 -13.4072265625
-35.955810546875 -3.73046875 16.0123291015625
14.174560546875 12.4412841796875 -32.2646484375
-20.950927734375 -0.1156005859375 4.1380615234375
9.6611328125 23.6917724609375 -9.809814453125
-31.738525390625 2.9385986328125 5.50732421875
-15.980712890625 0.7177734375 10.2744140625
-23.847412109375 2.6480712890625 2.8155517578125
7.861328125 15.84912109375 -40.516357421875
-8.88427734375 -1.153564453125 14.05224609375
7.143310546875 15.0203857421875 -38.7601318359375
6.036376953125 12.5792236328125 -32.8546142578125
-27.057861328125 -3.0447998046875 20.5216064453125
0.729248046875 13.8717041015625 -35.234375
-0.040283203125 13.55419921875 -31.80029296875
-24.1357421875 1.60107421875 8.6083984375
-28.10595703125 2.1929931640625 5.8328857421875
-4.984130859375 15.552978515625 -38.9859619140625
-29.43603515625 1.6546630859375 3.656982421875
-19.143310546875 3.1314697265625 3.5382080078125
9.1064453125 21.558349609375 -15.13134765625
-4.76171875 18.7025146484375 -46.7696533203125
8.744873046875 11.6336669921875 -29.546630859375
-22.062255859375 0.0224609375 5.58984375
7.954345703125 12.3177490234375 -31.37255859375
-20.39404296875 -4.770263671875 16.7818603515625
13.399169921875 20.73974609375 -53.8111572265625
-21.251953125 -3.39111328125 23.7423095703125
6.932861328125 13.903564453125 -35.2117919921875
-22.529052734375 -3.29736328125 19.37060546875
4.779296875 11.5103759765625 -25.5108642578125
-3.322998046875 16.804931640625 -42.4359130859375
-0.23876953125 23.588623046875 -58.0369873046875
-15.839111328125 0.45458984375 12.8453369140625
-4.674072265625 11.524658203125 -26.2447509765625
-16.38427734375 -1.40673828125 20.0406494140625
-24.072021484375 -1.3233642578125 21.341552734375
-17.571044921875 2.81787109375 2.883056640625
-7.567138671875 -0.600341796875 11.15869140625
-5.111572265625 23.6033935546875 -58.7706298828125
-25.46728515625 0.9503173828125 11.0943603515625
-0.036376953125 21.15087890625 -54.111572265625
-1.84326171875 22.039794921875 -57.2196044921875
-1.527099609375 21.268310546875 -55.2010498046875
-10.061279296875 2.02294921875 5.51708984375
11.944091796875 27.1915283203125 -8.26708984375
-34.0654296875 0.033447265625 11.16650390625
-27.655029296875 0.1607666015625 14.1663818359375
1.267822265625 20.1988525390625 -50.8778076171875
-9.61376953125 -0.3330078125 11.8953857421875
13.291015625 14.75048828125 -38.645751953125
-16.0859375 2.0146484375 7.90283203125
2.32080078125 27.0145263671875 -13.2132568359375
-29.296875 -2.1961669921875 20.3319091796875
17.97900390625 17.8380126953125 -47.0048828125
15.337158203125 20.58203125 -53.2674560546875
-14.66162109375 2.5867919921875 6.2440185546875
4.671875 20.91943359375 -54.2022705078125
0.305419921875 22.249755859375 -55.9056396484375
-13.579833984375 0.251708984375 14.1790771484375
-35.920654296875 -4.209716796875 18.1646728515625
-14.362548828125 -1.94091796875 20.6341552734375
-14.409912109375 4.5908203125 21.9501953125
18.951171875 11.9818115234375 -30.4031982421875
13.77490234375 28.295654296875 -9.7586669921875
6.097412109375 22.6844482421875 -58.3270263671875
-3.14697265625 17.6221923828125 -44.5355224609375
-7.614013671875 -0.23974609375 8.9608154296875
-2.301513671875 21.2388916015625 -53.142333984375
-22.185791015625 0.357177734375 7.23828125
14.831298828125 12.405029296875 -30.1024169921875
7.528076171875 20.7374267578125 -53.87255859375
-6.061279296875 21.495849609375 -53.73876953125
-31.056396484375 -1.0572509765625 15.433349609375
-5.294189453125 18.1259765625 -44.6475830078125
5.142333984375 29.819091796875 -17.12646484375
-29.5322265625 1.262451171875 8.4029541015625
-18.335693359375 -1.345947265625 17.849853515625
-3.06396484375 20.2381591796875 -51.2894287109375
-11.400390625 2.6309814453125 7.3511962890625
9.09814453125 13.04296875 -33.16845703125
-21.773681640625 -5.1866455078125 22.093017578125
-12.9296875 0.9527587890625 13.0784912109375
13.794921875 12.3841552734375 -30.79541015625
-4.725341796875 16.4659423828125 -40.6566162109375
5.02783203125 18.03076171875 -46.0223388671875
-12.33203125 4.2431640625 22.087646484375
6.19287109375 17.086669921875 -44.1749267578125
0.800537109375 18.12841796875 -45.560791015625
-3.708251953125 24.019287109375 -61.1065673828125
-3.014404296875 18.237548828125 -46.1160888671875
2.79345703125 20.6556396484375 -52.2890625
-3.2734375 14.5362548828125 -35.9027099609375
-1.876953125 14.265869140625 -34.7701416015625
-21.524658203125 -4.8056640625 18.654052734375
11.385009765625 14.9119873046875 -39.1968994140625
18.565185546875 16.25048828125 -42.5069580078125
1.967529296875 19.4456787109375 -49.89892578125
6.748779296875 23.16162109375 -12.761962890625
-22.161376953125 -1.3409423828125 23.099609375
3.977294921875 15.76025390625 -40.560546875
-34.962646484375 -0.628662109375 9.37890625
-5.844482421875 19.745849609375 -48.194580078125
-21.5556640625 -3.3489990234375 12.1007080078125
-0.108154296875 16.2218017578125 -40.6988525390625
-26.5478515625 2.22265625 8.0762939453125
7.7158203125 19.233642578125 -49.283935546875
5.2041015625 14.9774169921875 -38.7850341796875
-4.095703125 14.96923828125 -36.7467041015625
1.86669921875 18.7203369140625 -47.3525390625
3.45361328125 15.4437255859375 -39.4420166015625
5.839599609375 11.130859375 -27.4501953125
-22.066162109375 -3.6351318359375 16.8536376953125
8.321533203125 32.2021484375 -20.5936279296875
-3.986083984375 19.9525146484375 -49.6041259765625
-34.578125 -2.8922119140625 17.6671142578125
8.043701171875 22.4754638671875 -57.3055419921875
8.564208984375 23.2205810546875 -14.0341796875
15.473876953125 15.615234375 -40.7344970703125
-35.199462890625 -5.1756591796875 20.6954345703125
18.154052734375 14.8572998046875 -39.265380859375
20.095458984375 20.13427734375 -52.8116455078125
3.36474609375 28.656982421875 -15.14697265625
-29.316650390625 -1.0413818359375 15.5374755859375
17.10595703125 12.7015380859375 -33.4105224609375
-24.635986328125 -0.60302734375 12.940673828125
-1.22265625 17.6695556640625 -44.5198974609375
-1.012939453125 12.18896484375 -30.3424072265625
-9.010498046875 -1.163330078125 12.802978515625
-12.11376953125 3.0721435546875 2.669189453125
15.992919921875 13.893798828125 -36.238525390625
-13.455322265625 2.824951171875 3.8299560546875
2.21728515625 24.4080810546875 -61.6868896484375
6.11328125 16.6241455078125 -42.645263671875
-22.1865234375 -2.3687744140625 14.533935546875
-29.8642578125 2.39990234375 4.84814453125
-28.7578125 0.181640625 11.8460693359375
-34.6728515625 -4.041259765625 21.2066650390625
-5.743896484375 13.732666015625 -33.341552734375
-13.226318359375 -1.0167236328125 19.0052490234375
-19.646240234375 -3.4688720703125 18.4864501953125
-2.45361328125 16.2677001953125 -40.6502685546875
-4.461669921875 13.1126708984375 -31.6483154296875
-23.818359375 1.6439208984375 7.2711181640625
0.3251953125 9.892578125 -24.6429443359375
3.44384765625 13.227294921875 -33.375
-13.320556640625 2.050048828125 8.6728515625
-2.03125 15.87255859375 -39.2642822265625
-4.840576171875 14.0018310546875 -34.968505859375
-21.17822265625 -3.8837890625 13.818115234375
-10.9150390625 0.732177734375 11.9150390625
-21.96630859375 0.9229736328125 23.896484375
-12.359130859375 3.43896484375 20.9732666015625
4.43212890625 11.7489013671875 -30.4830322265625
1.525390625 13.1873779296875 -33.4083251953125
1.84912109375 22.3428955078125 -55.3526611328125
1.0771484375 22.9454345703125 -56.2816162109375
-14.409912109375 0.7471923828125 12.533203125
-28.66552734375 1.634521484375 6.89990234375
13.57275390625 32.13720703125 -21.1552734375
3.936767578125 30.1865234375 -16.515380859375
-31.08349609375 -2.125732421875 19.3861083984375
-28.096923828125 3.1080322265625 2.2423095703125
2.730712890625 23.75732421875 -13.02197265625
-17.041259765625 0.49560546875 13.8961181640625
-27.072021484375 2.531982421875 5.9925537109375
21.83642578125 18.8763427734375 -31.303955078125
-3.3759765625 11.746337890625 -28.374267578125
-14.348388671875 1.3900146484375 10.27001953125
22.00927734375 16.99658203125 -41.1168212890625
4.7978515625 23.276611328125 -59.6077880859375
-24.85791015625 3.4498291015625 6.662353515625
-0.43408203125 18.9166259765625 -47.3480224609375
5.03515625 26.710693359375 -8.2264404296875
-30.694580078125 0.016357421875 10.5546875
18.75146484375 18.6346435546875 -48.3289794921875
9.29541015625 19.951171875 -51.713134765625
-15.792724609375 -2.4505615234375 21.8101806640625
4.21630859375 22.3148193359375 -10.2799072265625
-10.79345703125 4.872802734375 21.2904052734375
17.619140625 21.695556640625 -55.9920654296875
0.9921875 19.2647705078125 -49.1610107421875
8.399169921875 18.1673583984375 -46.8170166015625
15.486328125 21.269775390625 -55.383056640625
-27.142333984375 -2.0911865234375 19.9383544921875
12.294921875 12.2037353515625 -30.4349365234375
17.777587890625 20.5433349609375 -53.3416748046875
3.03369140625 17.7764892578125 -45.5057373046875
2.648193359375 13.9127197265625 -35.2039794921875
2.540283203125 12.9085693359375 -31.2799072265625
-30.723876953125 -1.7283935546875 17.171142578125
5.26220703125 13.2149658203125 -34.21923828125
-33.628173828125 -2.76123046875 22.01513671875
-22.601318359375 -3.049560546875 21.8316650390625
16.508056640625 19.62109375 -51.384765625
17.32568359375 18.8590087890625 -49.0096435546875
17.95166015625 19.343994140625 -50.2225341796875
9.43115234375 22.3111572265625 -10.3721923828125
-5.824462890625 12.737060546875 -29.45458984375
17.85009765625 13.5267333984375 -35.158447265625
-1.4033203125 16.850830078125 -42.4169921875
14.576416015625 34.172607421875 -26.0140380859375
9.079833984375 21.1986083984375 -55.3011474609375
22.6015625 15.1519775390625 -29.1717529296875
17.88232421875 17.369140625 -45.453369140625
-0.677734375 13.541015625 -33.4788818359375
0.502197265625 23.7294921875 -61.0833740234375
9.48681640625 14.71728515625 -37.8106689453125
19.93212890625 17.62548828125 -45.9757080078125
21.551513671875 17.5574951171875 -43.9705810546875
19.58740234375 16.3770751953125 -42.76416015625
15.280029296875 18.599853515625 -48.480224609375
-12.80419921875 3.0274658203125 4.95458984375
17.657470703125 16.538330078125 -43.3157958984375
3.68994140625 22.7188720703125 -58.2435302734375
-0.736328125 15.549560546875 -39.0069580078125
3.212158203125 24.189697265625 -15.0244140625
20.985595703125 19.5263671875 -50.48388671875
19.074462890625 14.5196533203125 -37.9859619140625
20.281005859375 15.2105712890625 -39.351806640625
7.712158203125 21.6322021484375 -56.51953125
14.20361328125 20.029052734375 -51.9141845703125
-8.73095703125 0.906982421875 5.932861328125
21.579345703125 19.3275146484375 -48.2037353515625
5.5380859375 18.405029296875 -47.63330078125
15.31201171875 16.73974609375 -43.31787109375
14.18896484375 16.2001953125 -41.9986572265625
20.600341796875 16.1414794921875 -41.0574951171875
17.027099609375 14.3228759765625 -37.95751953125
-28.931640625 -1.5760498046875 17.2410888671875
-26.2744140625 3.0416259765625 3.188232421875
5.343017578125 21.5625 -55.4774169921875
11.653564453125 26.848388671875 -4.5076904296875
11.59814453125 17.78515625 -46.966796875
-9.196044921875 -0.19482421875 10.942138671875
16.09228515625 12.2279052734375 -31.2406005859375
15.6416015625 17.9859619140625 -46.5224609375
-9.661865234375 -2.0523681640625 19.4326171875
4.091552734375 20.382568359375 -52.5126953125
7.921630859375 31.1878662109375 -19.8216552734375
3.722412109375 21.9608154296875 -13.71826171875
-9.682373046875 5.1282958984375 22.328369140625
13.5498046875 28.1063232421875 -6.028564453125
-10.781005859375 5.447021484375 23.2999267578125
3.0615234375 19.9912109375 -51.232421875
7.76171875 23.240966796875 -12.521484375
-20.765380859375 0.613525390625 24.168701171875
-15.309814453125 2.892333984375 2.8734130859375
-0.375244140625 21.66015625 -55.11181640625
2.802001953125 19.0042724609375 -49.0372314453125
10.57470703125 13.2747802734375 -34.00048828125
13.615234375 13.8941650390625 -35.72802734375
0.2509765625 20.1212158203125 -51.0892333984375
4.1982421875 16.8345947265625 -43.662841796875
14.334228515625 16.87158203125 -44.0684814453125
-4.4580078125 20.4586181640625 -51.958984375
0.852294921875 18.64404296875 -47.566162109375
9.9404296875 12.557861328125 -31.8538818359375
-34.560791015625 -4.151611328125 18.7376708984375
-31.309814453125 1.0604248046875 8.7724609375
-2.747802734375 19.47412109375 -49.29248046875
-36.422607421875 -3.516845703125 14.812744140625
8.751220703125 27.2320556640625 -6.77001953125
1.9638671875 23.7200927734375 -60.95556640625
-15.876220703125 2.280517578125 4.39306640625
-15.103759765625 -0.36328125 14.990478515625
3.006103515625 17.5191650390625 -44.504150390625
9.361572265625 20.47607421875 -53.752685546875
3.6474609375 18.2010498046875 -46.2216796875
-4.106689453125 21.811279296875 -54.7506103515625
8.704345703125 15.716796875 -41.129638671875
7.82666015625 24.7340087890625 -14.2279052734375
-2.396728515625 24.9991455078125 -62.1756591796875
3.281982421875 21.0885009765625 -54.3963623046875
20.061279296875 12.558837890625 -32.157958984375
2.412841796875 23.2564697265625 -59.0391845703125
5.29052734375 11.21875 -28.7169189453125
2.81591796875 16.6981201171875 -42.39453125
10.885009765625 14.4942626953125 -37.13525390625
7.689453125 13.3155517578125 -34.30908203125
14.658935546875 14.2716064453125 -36.970947265625
0.594482421875 17.357666015625 -43.9207763671875
-26.255126953125 0.901611328125 12.0880126953125
7.555419921875 24.9998779296875 -8.3345947265625
4.184326171875 14.600830078125 -37.5460205078125
6.449951171875 30.8636474609375 -18.5372314453125
1.60498046875 17.4324951171875 -43.7049560546875
6.9091796875 21.1260986328125 -10.9869384765625
-0.418212890625 16.9759521484375 -42.670166015625
1.970458984375 12.1002197265625 -28.235595703125
-22.01953125 1.505615234375 3.99365234375
13.65625 19.70068359375 -50.759033203125
-17.160400390625 0.714599609375 11.7589111328125
-33.533203125 -1.161376953125 16.7257080078125
4.020751953125 14.04296875 -36.449951171875
-4.740478515625 18.959716796875 -47.7691650390625
-2.89013671875 23.309326171875 -59.2135009765625
9.751220703125 32.3140869140625 -21.364990234375
-32.8662109375 -2.0555419921875 18.442138671875
-10.5 2.7115478515625 2.44482421875
0.97998046875 14.83203125 -37.364501953125
-26.358154296875 -0.5457763671875 17.00341796875
-22.3232421875 1.0755615234375 2.865234375
0.436767578125 20.9549560546875 -53.23095703125
-1.341064453125 14.8302001953125 -36.85693359375
14.950927734375 17.349853515625 -45.2647705078125
-4.2783203125 12.0745849609375 -29.617919921875
-9.10693359375 0.6785888671875 7.761474609375
-20.759521484375 -5.425537109375 20.3040771484375
9.336181640625 21.6068115234375 -12.9176025390625
11.22802734375 11.931884765625 -30.1431884765625
-5.80615234375 15.683837890625 -38.3819580078125
16.900634765625 21.0989990234375 -55.1876220703125
5.048583984375 22.18896484375 -10.8631591796875
-30.375 -1.8359375 20.8636474609375
0.565185546875 23.568359375 -59.6353759765625
4.655517578125 10.562255859375 -27.06298828125
6.896484375 12.046630859375 -31.080322265625
18.506591796875 19.6727294921875 -51.3802490234375
16.788330078125 20.675537109375 -54.09814453125
11.171875 25.8372802734375 -9.6513671875
4.73291015625 19.1063232421875 -49.5050048828125
11.7255859375 12.34228515625 -32.178955078125
-2.033447265625 13.4124755859375 -32.24560546875
8.793212890625 24.6055908203125 -13.4764404296875
1.89892578125 23.8551025390625 -57.200927734375
15.93359375 29.3250732421875 -12.679931640625
-35.23046875 -3.044677734375 16.1590576171875
8.4716796875 25.63330078125 -6.831787109375
-1.08251953125 13.28271484375 -31.509033203125
10.729736328125 32.5709228515625 -22.544921875
-4.388671875 15.969482421875 -39.6844482421875
-5.090576171875 14.8970947265625 -36.9658203125
10.487548828125 14.8406982421875 -38.059814453125
5.916015625 15.8045654296875 -40.5384521484375
-16.327392578125 -0.7735595703125 17.811279296875
1.7548828125 27.7626953125 -12.815673828125
-22.30322265625 -0.9884033203125 7.5399169921875
10.72998046875 26.5836181640625 -7.9100341796875
-32.71044921875 2.9678955078125 4.4156494140625
11.34130859375 20.5289306640625 -53.7520751953125
-28.033447265625 1.3790283203125 9.7884521484375
-2.340576171875 12.3116455078125 -30.0902099609375
3.603515625 11.882568359375 -29.8865966796875
3.427734375 39.1466064453125 -44.189453125
2.324951171875 39.2276611328125 -45.865234375
17.083251953125 12.3985595703125 -31.95068359375
-14.638916015625 -1.0792236328125 18.4189453125
11.51513671875 19.0218505859375 -49.1513671875
-34.1767578125 2.5782470703125 4.3531494140625
7.931884765625 20.3834228515625 -52.9278564453125
20.951171875 12.93212890625 -29.6737060546875
-23.952880859375 0.454833984375 10.9210205078125
18.90771484375 21.1533203125 -55.1893310546875
9.594482421875 19.18017578125 -49.6959228515625
20.285888671875 20.71630859375 -53.9615478515625
8.668212890625 19.520263671875 -50.9830322265625
-36.1630859375 -4.32861328125 20.2884521484375
5.4638671875 24.6829833984375 -8.775390625
2.5029296875 11.116943359375 -27.6524658203125
10.330078125 16.2640380859375 -42.0941162109375
13.472412109375 21.2686767578125 -55.8648681640625
-22.86669921875 -2.24072265625 20.0596923828125
5.97998046875 22.4764404296875 -12.4617919921875
2.908203125 25.0072021484375 -62.4981689453125
14.17529296875 32.700439453125 -22.796630859375
-34.887451171875 -0.086181640625 7.9959716796875
12.346435546875 32.89306640625 -22.47705078125
4.725830078125 25.2239990234375 -9.204345703125
-36.41943359375 -0.5623779296875 7.5445556640625
-19.257568359375 -3.4365234375 22.166015625
7.2607421875 23.4632568359375 -8.8525390625
9.902587890625 20.8050537109375 -54.9107666015625
11.899658203125 12.8990478515625 -33.2716064453125
13.2333984375 27.9593505859375 -8.6722412109375
5.243408203125 17.1661376953125 -44.4476318359375
12.164306640625 19.76708984375 -51.378173828125
-36.087158203125 0.985595703125 12.591796875
-35.693359375 -1.32275390625 9.2413330078125
-22.390625 -2.131103515625 15.7796630859375
3.515869140625 21.8223876953125 -55.59521484375
14.212646484375 32.9747314453125 -23.797607421875
6.102783203125 20.64453125 -53.04833984375
-6.05859375 16.5848388671875 -40.3916015625
7.0439453125 14.6131591796875 -37.712890625
5.0947265625 27.64599609375 -17.0836181640625
5.532470703125 21.9434814453125 -9.548583984375
-0.38427734375 19.4339599609375 -49.35791015625
16.90673828125 28.817626953125 -10.001708984375
-2.11865234375 20.1602783203125 -51.0205078125
1.9765625 21.04638671875 -52.6766357421875
3.641845703125 40.7275390625 -49.4058837890625
-5.4423828125 20.017822265625 -50.21533203125
10.045654296875 22.4781494140625 -56.82666015625
11.15087890625 21.357421875 -54.8804931640625
9.61572265625 17.4267578125 -45.4945068359375
5.271484375 12.8643798828125 -32.306640625
12.344970703125 16.515625 -42.6044921875
-32.2685546875 -1.3743896484375 17.3741455078125
-0.693603515625 20.5120849609375 -52.845947265625
8.816162109375 21.869873046875 -56.370849609375
-5.0146484375 19.616943359375 -48.8123779296875
13.3369140625 13.180908203125 -29.52197265625
13.451171875 15.365478515625 -40.227783203125
-5.909912109375 22.06884765625 -54.8682861328125
-2.2080078125 17.5433349609375 -44.2645263671875
8.875 21.4373779296875 -11.88525390625
11.23681640625 19.7408447265625 -50.690185546875
5.398681640625 22.9852294921875 -16.0892333984375
13.368408203125 18.7066650390625 -48.547607421875
3.540283203125 25.906982421875 -10.0316162109375
20.18017578125 12.561767578125 -30.8026123046875
10.160400390625 22.8656005859375 -15.63037109375
2.55419921875 13.50927734375 -34.16748046875
11.65283203125 27.2210693359375 -6.400390625
-4.357177734375 18.0474853515625 -44.3770751953125
10.35791015625 27.486572265625 -6.2156982421875
18.47021484375 12.22412109375 -31.7403564453125
-3.389404296875 16.346923828125 -40.922119140625
0.16162109375 24.2442626953125 -62.0963134765625
-5.09521484375 12.50390625 -30.4544677734375
-23.54833984375 0.8193359375 9.0848388671875
9.82666015625 25.8935546875 -8.955078125
20.03173828125 18.0958251953125 -47.5313720703125
-2.366455078125 18.8670654296875 -47.359130859375
-0.496826171875 14.346435546875 -35.54638671875
18.001708984375 14.1907958984375 -37.2080078125
8.603271484375 18.99853515625 -48.9539794921875
8.10791015625 22.759765625 -16.5704345703125
1.804931640625 16.623779296875 -42.611328125
16.988037109375 14.0673828125 -36.9586181640625
-25.637451171875 3.0123291015625 5.2003173828125
4.650634765625 31.0567626953125 -18.226806640625
12.68212890625 21.5570068359375 -55.2890625
9.3857421875 26.638916015625 -7.2161865234375
-14.16259765625 4.880859375 23.1212158203125
-5.907470703125 19.2818603515625 -46.66650390625
6.824951171875 26.143310546875 -6.632080078125
6.9228515625 25.5911865234375 -7.8896484375
2.47607421875 10.869384765625 -26.6822509765625
-17.178466796875 2.8411865234375 6.65283203125
-3.447998046875 13.73193359375 -33.83837890625
19.62890625 16.63623046875 -43.7755126953125
3.848876953125 19.3406982421875 -49.8338623046875
-3.775146484375 23.54345703125 -59.5408935546875
16.223388671875 12.9364013671875 -33.741943359375
0.84228515625 20.6029052734375 -52.2921142578125
16.933349609375 17.3974609375 -45.2501220703125
18.28076171875 17.0169677734375 -44.5130615234375
12.39013671875 14.6793212890625 -37.50830078125
9.31298828125 12.796875 -29.4974365234375
14.7294921875 27.8458251953125 -7.5595703125
-4.4404296875 13.36181640625 -32.6220703125
14.732421875 18.2742919921875 -47.33251953125
13.974365234375 13.2945556640625 -33.8128662109375
-13.457275390625 5.22412109375 24.2066650390625
-3.13671875 21.9959716796875 -55.497314453125
-0.929443359375 10.4603271484375 -25.869140625
-1.91455078125 21.2535400390625 -54.1708984375
-12.48291015625 -1.604736328125 20.2506103515625
-11.156982421875 -1.369873046875 19.1383056640625
6.9814453125 16.0830078125 -40.8458251953125
-21.83935546875 1.654052734375 22.0697021484375
-18.00927734375 -1.798828125 18.71875
-3.31494140625 21.1605224609375 -53.351806640625
7.17431640625 11.3536376953125 -29.6014404296875
6.26611328125 15.2540283203125 -39.0892333984375
16.885498046875 15.39111328125 -40.0556640625
2.309814453125 13.1536865234375 -29.9287109375
16.23486328125 16.4010009765625 -42.034912109375
-32.42529296875 1.9178466796875 7.1165771484375
-22.3642578125 2.6846923828125 25.3079833984375
12.628173828125 17.4981689453125 -44.7874755859375
9.973388671875 12.8095703125 -32.8387451171875
-5.656005859375 13.534912109375 -31.4986572265625
-3.197998046875 19.3062744140625 -48.2159423828125
2.653564453125 16.1353759765625 -41.287841796875
-5.737548828125 22.906005859375 -57.0164794921875
5.951904296875 14.08447265625 -36.42138671875
0.13427734375 12.5107421875 -29.760986328125
-10.21484375 1.277099609375 7.41259765625
5.213623046875 21.79345703125 -12.16259765625
4.204345703125 10.4063720703125 -26.026611328125
7.677978515625 19.338134765625 -50.2391357421875
6.771484375 19.6256103515625 -51.046875
-1.277587890625 11.2916259765625 -28.70556640625
11.634033203125 17.6815185546875 -46.013671875
-1.279296875 23.8798828125 -60.2305908203125
13.124267578125 15.8685302734375 -41.214111328125
16.312255859375 16.9183349609375 -44.052001953125
-1.30126953125 11.0445556640625 -27.73681640625
-5.30712890625 11.5111083984375 -27.90673828125
4.99755859375 20.0953369140625 -51.70556640625
-12.29345703125 2.206298828125 9.309326171875
-1.424072265625 11.0457763671875 -24.110107421875
3.215087890625 12.5224609375 -32.2366943359375
4.655029296875 18.639404296875 -47.9622802734375
7.375 18.0911865234375 -47.031982421875
21.511474609375 15.4412841796875 -37.8153076171875
0.65771484375 13.4193115234375 -33.7357177734375
12.310791015625 33.005859375 -23.4249267578125
10.123291015625 15.4429931640625 -39.9827880859375
-2.407470703125 14.3048095703125 -35.576171875
8.236083984375 15.9102783203125 -42.002197265625
-13.1171875 -0.4674072265625 17.6180419921875
-10.47802734375 -1.063232421875 15.5848388671875
-3.179931640625 12.7911376953125 -31.3892822265625
-1.081298828125 20.498046875 -51.8189697265625
-2.363525390625 12.0633544921875 -29.1192626953125
-3.26708984375 12.39208984375 -30.3651123046875
7.218505859375 22.6781005859375 -15.4681396484375
12.35498046875 14.7806396484375 -38.4500732421875
19.11376953125 12.9949951171875 -34.3712158203125
-7.556396484375 0.1751708984375 7.5830078125
-21.767578125 -1.68115234375 7.162841796875
1.725341796875 18.10107421875 -45.7618408203125
1.037353515625 16.9085693359375 -42.0546875
-0.971435546875 18.9560546875 -48.1644287109375
3.74072265625 16.6695556640625 -42.5926513671875
8.633056640625 13.2344970703125 -34.032958984375
-31.87158203125 1.5673828125 9.61083984375
1.81884765625 16.2667236328125 -40.6771240234375
17.073486328125 12.8017578125 -34.349609375
-31.4150390625 -2.121826171875 20.27099609375
20.50390625 14.2440185546875 -36.8321533203125
-14.15234375 3.057373046875 4.76806640625
-0.1435546875 18.2071533203125 -45.83203125
-13.666015625 -2.44091796875 21.028564453125
-21.459716796875 -2.8070068359375 10.7125244140625
-14.21435546875 2.4078369140625 7.053955078125
2.8642578125 14.975341796875 -38.272216796875
-13.955078125 3.795166015625 21.1766357421875
0.810791015625 16.1929931640625 -40.8948974609375
4.34228515625 13.2459716796875 -34.029296875
-1.361083984375 16.7490234375 -41.4793701171875
7.7548828125 22.5634765625 -9.20361328125
-2.72265625 17.224853515625 -43.1422119140625
-12.419189453125 1.41845703125 11.6207275390625
-8.703857421875 0.51513671875 3.433837890625
1.072509765625 15.237548828125 -38.40625
-13.90283203125 1.2119140625 11.0762939453125
0.18017578125 15.5203857421875 -39.201171875
-27.200927734375 0.8878173828125 11.4207763671875
8.964599609375 12.3880615234375 -31.1478271484375
-0.7607421875 15.29638671875 -38.0194091796875
7.917236328125 12.416748046875 -32.30224609375
-22.314208984375 -4.0198974609375 20.303955078125
-28.43115234375 2.0367431640625 3.3853759765625
-21.3623046875 -4.4921875 23.1363525390625
-13.247314453125 2.422607421875 7.7294921875
-24.559326171875 -0.7322998046875 14.21142578125
-10.50927734375 -1.5166015625 17.3680419921875
-11.072021484375 1.0413818359375 8.8980712890625
-32.6376953125 -3.2147216796875 21.1064453125
-14.299560546875 1.8052978515625 8.8997802734375
-36.337646484375 -2.141845703125 10.3648681640625
-1.588134765625 13.57177734375 -33.290283203125
14.917724609375 20.9915771484375 -54.7020263671875
-9.3251953125 3.388427734375 2.0831298828125
10.62109375 27.7955322265625 -4.9681396484375
-5.06982421875 15.1488037109375 -37.947998046875
-23.067626953125 2.0108642578125 4.5079345703125
-20.698486328125 -2.9439697265625 10.181396484375
-15.441162109375 1.367431640625 8.343994140625
18.105712890625 20.0286865234375 -52.3304443359375
-26.206787109375 0.5885009765625 13.8223876953125
-7.989501953125 0.859130859375 4.5189208984375
-9.504150390625 1.5496826171875 4.2247314453125
-11.84619140625 2.4649658203125 3.607177734375
-11.90087890625 -0.7803955078125 17.8896484375
-21.4130859375 -2.1776123046875 8.4678955078125
-22.665771484375 1.192138671875 7.57666015625
-10.0244140625 -0.742431640625 14.172119140625
-10.19873046875 1.5076904296875 6.506103515625
-4.2353515625 11.976806640625 -28.700439453125
-26.54443359375 2.450927734375 7.18212890625
-11.656494140625 1.83203125 8.416015625
-32.21923828125 -0.1212158203125 12.95166015625
-16.22705078125 3.132080078125 5.9908447265625
-15.70068359375 1.8548583984375 3.5941162109375
-11.9443359375 1.6998291015625 10.628173828125
-2.1845703125 11.0283203125 -27.095947265625
-36.38720703125 -0.828369140625 8.8485107421875
-18.637451171875 3.09423828125 4.306884765625
-12.668701171875 -0.146484375 16.2120361328125
-28.667236328125 1.4073486328125 7.7918701171875
-27.469970703125 -1.4197998046875 18.20263671875
-27.80615234375 -2.9093017578125 21.039306640625
-10.30322265625 4.603271484375 22.950927734375
-22.11669921875 -1.78271484375 12.725830078125
-20.660888671875 -0.9818115234375 6.3887939453125
13.0927734375 19.42578125 -50.0867919921875
16.645751953125 18.1668701171875 -47.263427734375
-9.58544921875 -1.6868896484375 18.50732421875
-16.002685546875 1.6077880859375 10.5234375
8.955322265625 23.15966796875 -9.560546875
-16.589599609375 1.548095703125 9.366455078125
14.31640625 32.6361083984375 -20.951904296875
-17.021484375 -2.0963134765625 21.11669921875
-8.93994140625 -1.5643310546875 15.41357421875
-8.699462890625 0.314208984375 9.04443359375
10.183837890625 22.0821533203125 -11.3720703125
-15.275390625 5.243408203125 23.662109375
-23.34375 2.611083984375 3.580810546875
-10.416015625 1.677490234375 3.50732421875
-10.33251953125 -0.0555419921875 12.3931884765625
-12.20849609375 -0.8642578125 19.643798828125
-22.432861328125 3.0445556640625 23.165771484375
-25.763916015625 0.4129638671875 14.6173095703125
-26.46484375 2.8931884765625 1.9793701171875
-27.087158203125 1.39306640625 10.45556640625
-25.345458984375 2.0269775390625 3.6556396484375
-16.538818359375 0.458740234375 14.6595458984375
-23.76611328125 2.6275634765625 7.905029296875
-35.78125 -2.704345703125 13.7037353515625
-17.642822265625 -1.352783203125 16.050537109375
-12.896240234375 3.2071533203125 3.21630859375
-27.203857421875 0.6617431640625 12.3074951171875
-7.707275390625 -1.1102294921875 12.136474609375
-14.567626953125 -0.713623046875 17.494873046875
8.265380859375 19.873291015625 -51.92529296875
-29.6728515625 0.1251220703125 11.60400390625
-28.6728515625 0.7281494140625 10.45947265625
-24.892822265625 1.9632568359375 8.2491455078125
-22.568115234375 -0.050537109375 9.5072021484375
-10.846435546875 -0.5184326171875 13.8487548828125
-25.177978515625 1.0360107421875 9.3377685546875
-32.21240234375 3.3880615234375 3.38525390625
-30.273193359375 1.920166015625 2.9111328125
-24.595703125 1.09521484375 10.4854736328125
14.2783203125 20.55615234375 -53.9625244140625
-22.112548828125 -3.3076171875 23.4573974609375
-8.7314453125 -1.457763671875 17.0494384765625
-29.150390625 -0.1793212890625 13.6650390625
-25.21435546875 0.2896728515625 16.220458984375
14.511474609375 28.785400390625 -9.544921875
-0.348876953125 23.5379638671875 -58.9388427734375
13.362548828125 20.4759521484375 -52.786865234375
-22.604248046875 -4.098388671875 22.0299072265625
-13.470458984375 4.651611328125 22.2034912109375
-22.261474609375 -4.9302978515625 20.4686279296875
-20.38720703125 -5.1290283203125 22.6751708984375
-22.4599609375 -2.7152099609375 17.5782470703125
-22.191650390625 2.265625 24.521484375
-21.611572265625 2.3245849609375 25.6651611328125
-18.829345703125 -2.63525390625 18.6024169921875
20.676513671875 14.86083984375 -38.418212890625
-24.243408203125 0.259765625 17.311767578125
-4.856201171875 22.672607421875 -56.6895751953125
2.956787109375 12.5179443359375 -29.9075927734375
-23.86328125 -1.2305908203125 14.60595703125
20.77392578125 16.76416015625 -42.6573486328125
-27.40966796875 -0.8350830078125 16.410400390625
-28.4306640625 -0.9429931640625 15.3604736328125
-22.481689453125 -1.6170654296875 16.9503173828125
-33.392578125 1.720703125 6.9171142578125
6.471435546875 18.377685546875 -47.8370361328125
-34.748779296875 1.8385009765625 5.8831787109375
-15.96728515625 -0.55029296875 16.0218505859375
11.998779296875 17.0721435546875 -44.0693359375
-11.392333984375 5.4324951171875 21.71142578125
-35.218017578125 -1.9827880859375 12.2078857421875
-21.55029296875 -0.62890625 4.7835693359375
-24.02734375 -2.580810546875 18.6597900390625
-11.677734375 0.32275390625 15.1019287109375
10.766357421875 32.45849609375 -21.599609375
22.332275390625 14.2305908203125 -32.58642578125
4.571533203125 22.165771484375 -56.408203125
-33.53515625 -0.9388427734375 15.851318359375
-29.0400390625 0.3709716796875 20.6259765625
6.79248046875 17.562255859375 -45.3638916015625
-0.29248046875 19.8486328125 -50.4234619140625
-21.254638671875 -5.38916015625 19.551513671875
14.549560546875 15.59375 -40.06298828125
-32.218505859375 -0.344970703125 13.8314208984375
20.902099609375 13.488525390625 -33.488037109375
-33.18359375 -3.0948486328125 19.527587890625
10.885009765625 16.5328369140625 -42.7510986328125
-27.97021484375 -1.8287353515625 19.200927734375
15.832763671875 15.0098876953125 -38.8011474609375
-30.723388671875 -1.5059814453125 16.2957763671875
0.48974609375 13.5152587890625 -30.9949951171875
-22.6494140625 3.7816162109375 22.228759765625
18.32470703125 13.6890869140625 -36.2249755859375
-35.900634765625 -5.462158203125 19.230712890625
-35.19921875 -1.359130859375 9.9923095703125
15.4921875 29.034912109375 -10.6983642578125
-31.308349609375 -1.1820068359375 17.582275390625
8.93505859375 18.490966796875 -47.9576416015625
-22.428466796875 1.13818359375 5.84765625
3.61865234375 38.68310546875 -45.0592041015625
-22.992431640625 -1.0889892578125 14.00341796875
-16.013916015625 4.71435546875 23.03955078125
5.85400390625 19.599609375 -50.3623046875
-35.51708984375 -0.282958984375 6.89794921875
-32.427001953125 -2.2283935546875 19.2266845703125
-12.640625 0.30908203125 14.4261474609375
-15.37109375 0.7333984375 11.8590087890625
-36.18798828125 -1.1895751953125 15.9593505859375
15.43359375 13.6285400390625 -35.5899658203125
18.084716796875 12.1668701171875 -30.2672119140625
2.367919921875 21.0609130859375 -53.7078857421875
3.265625 10.192626953125 -24.8768310546875
-30.9482421875 -0.1104736328125 12.719970703125
12.71630859375 14.1790771484375 -36.5286865234375
-26.7705078125 -0.189453125 15.75244140625
-32.897216796875 2.1375732421875 5.8941650390625
15.249755859375 12.7149658203125 -32.5604248046875
-11.775146484375 4.6246337890625 21.5010986328125
-31.390625 0.2889404296875 11.044677734375
5.890625 17.84814453125 -46.1673583984375
10.333251953125 21.7373046875 -13.1390380859375
2.4013671875 26.7998046875 -11.3673095703125
-21.5576171875 -0.855224609375 5.680908203125
14.3720703125 28.8460693359375 -11.3621826171875
-15.091796875 -0.13623046875 14.0987548828125
-34.17578125 -4.458740234375 19.5543212890625
10.9208984375 14.393310546875 -36.196044921875
7.0234375 23.70263671875 -58.8319091796875
13.31298828125 12.6256103515625 -32.1280517578125
4.902099609375 15.73095703125 -40.7569580078125
-4.877685546875 22.4100341796875 -55.6739501953125
5.046142578125 22.657470703125 -59.017578125
9.625 13.7088623046875 -36.2021484375
6.18310546875 25.1632080078125 -8.56298828125
-3.88818359375 18.4700927734375 -46.44287109375
-27.898681640625 2.4127197265625 2.7796630859375
-29.071533203125 -2.4742431640625 19.517333984375
-37.04345703125 -5.1966552734375 19.3798828125
-21.82373046875 -3.47119140625 14.2696533203125
2.842041015625 25.0875244140625 -13.339599609375
1.32275390625 18.4498291015625 -46.692138671875
15.803466796875 31.58203125 -20.54150390625
7.889404296875 14.1260986328125 -36.392822265625
15.53515625 11.965576171875 -30.6002197265625
-32.288818359375 1.9259033203125 8.3521728515625
-27.819091796875 2.2802734375 4.066162109375
-5.29541015625 18.43359375 -46.113525390625
-4.8642578125 20.808837890625 -52.8934326171875
5.242919921875 14.87646484375 -37.8480224609375
2.91552734375 23.3092041015625 -13.86279296875
3.01806640625 23.0556640625 -56.7664794921875
7.093994140625 12.851318359375 -33.1492919921875
8.670166015625 23.2706298828125 -13.1572265625
7.957275390625 22.1368408203125 -15.0367431640625
-26.55126953125 1.99462890625 8.9691162109375
6.675537109375 21.3677978515625 -9.6412353515625
23.46142578125 15.018310546875 -29.7791748046875
-4.193603515625 17.0369873046875 -42.7625732421875
11.448486328125 20.58056640625 -52.8486328125
-23.26611328125 -0.4970703125 13.0941162109375
13.302978515625 27.7420654296875 -6.816650390625
-35.865234375 -2.5780029296875 12.4478759765625
-24.644287109375 -2.2122802734375 19.52880859375
6.074462890625 12.4801025390625 -31.925537109375
13.67822265625 17.885498046875 -46.0576171875
-22.7197265625 -2.6156005859375 18.8558349609375
-26.115966796875 -1.5386962890625 19.2384033203125
9.27880859375 15.5755615234375 -39.370361328125
10.182373046875 27.280517578125 -7.04736328125
-1.5966796875 24.66015625 -62.26904296875
-12.115478515625 3.4173583984375 5.605224609375
-30.169189453125 0.38671875 9.962890625
2.820068359375 28.376220703125 -14.5225830078125
5.944091796875 23.2591552734375 -16.7130126953125
16.259765625 28.808349609375 -11.7117919921875
3.0615234375 23.9599609375 -60.811767578125
-33.30615234375 1.13818359375 9.962646484375
8.413330078125 24.8223876953125 -8.4583740234375
7.58837890625 31.70654296875 -20.79638671875
5.657470703125 26.77392578125 -6.999755859375
9.212158203125 21.608642578125 -14.2550048828125
22.7314453125 17.1654052734375 -39.4473876953125
12.609130859375 12.712890625 -29.7120361328125
-7.57080078125 -0.3277587890625 9.8250732421875
-10.777099609375 2.0247802734375 7.3619384765625
-6.012939453125 18.614013671875 -44.6168212890625
-17.522216796875 3.5799560546875 4.425537109375
3.233642578125 24.423583984375 -11.00537109375
8.36474609375 21.062255859375 -10.3485107421875
2.062255859375 19.861328125 -50.9674072265625
0.98876953125 24.1436767578125 -58.0118408203125
19.96875 19.3424072265625 -49.733642578125
-3.8857421875 23.492919921875 -60.4412841796875
-1.832763671875 10.4931640625 -25.6881103515625
-3.924072265625 11.242431640625 -26.7825927734375
-21.76708984375 0.107421875 3.818359375
6.51318359375 16.2764892578125 -41.7174072265625
-16.189208984375 0.4566650390625 13.753173828125
-33.4853515625 -0.3553466796875 14.061279296875
12.0498046875 26.8675537109375 -5.4918212890625
