-5.568115234375 65.020751953125 39.9322509765625
31.0537109375 89.0316162109375 -47.9398193359375
51.274658203125 42.679931640625 0.7860107421875
26.143798828125 22.5096435546875 14.685546875
10.9599609375 34.307373046875 -14.1806640625
12.169189453125 -9.76171875 54.8626708984375
84.127197265625 3.377197265625 -62.810791015625
66.585693359375 46.4547119140625 -3.073486328125
16.660400390625 -46.7451171875 93.9183349609375
-7.337158203125 -2.449462890625 47.30078125
53.275390625 88.146728515625 -46.69140625
7.104248046875 34.9246826171875 -1.6260986328125
62.5849609375 -54.7535400390625 101.564697265625
-3.4443359375 98.631103515625 -51.912109375
-8.122802734375 94.8603515625 -34.705322265625
22.32421875 94.87841796875 -53.8294677734375
67.978515625 89.6541748046875 -48.3372802734375
-8.125 -34.8607177734375 72.5899658203125
47.5966796875 85.320556640625 -44.149169921875
-13.2470703125 8.19140625 47.5311279296875
-1.251708984375 58.5013427734375 -13.3233642578125
60.365966796875 -28.52197265625 66.0921630859375
-13.24267578125 14.1678466796875 36.1243896484375
53.94384765625 -46.1995849609375 84.373779296875
33.638916015625 36.6065673828125 6.7926025390625
64.753662109375 55.1424560546875 -11.9515380859375
46.27978515625 76.1448974609375 -34.183349609375
13.216796875 -0.8779296875 45.8712158203125
67.264404296875 -26.3231201171875 62.7816162109375
-2.708984375 -37.6507568359375 80.84423828125
32.627197265625 14.3685302734375 30.2593994140625
-21.81982421875 55.7589111328125 56.6239013671875
-22.378662109375 -25.00927734375 72.392333984375
71.738525390625 34.4912109375 9.43359375
-15.67138671875 -35.089111328125 -61.007568359375
87.52734375 17.00341796875 27.964111328125
22.55419921875 31.69287109375 -11.451904296875
65.93798828125 -5.6912841796875 -44.8934326171875
43.837158203125 31.571044921875 -88.358642578125
54.799072265625 -26.3492431640625 62.7437744140625
65.8212890625 68.798828125 -26.1846923828125
3.3642578125 71.212890625 -29.4178466796875
21.831298828125 10.7930908203125 33.685546875
-3.272705078125 31.779052734375 11.4473876953125
57.48095703125 61.936767578125 -19.4212646484375
34.70849609375 9.241943359375 35.6260986328125
49.335205078125 -28.632568359375 65.968994140625
74.12548828125 61.712890625 -19.1044921875
47.56298828125 77.7236328125 -95.5914306640625
9.878662109375 -17.24853515625 63.0169677734375
72.39111328125 -54.62158203125 92.25146484375
-21.29931640625 8.20556640625 71.9259033203125
-12.583984375 -63.5186767578125 -44.622314453125
63.621337890625 -43.1624755859375 81.8055419921875
-5.529052734375 71.228271484375 -20.284912109375
2.0087890625 102.5863037109375 -60.976318359375
-8.589599609375 64.0909423828125 7.8153076171875
38.77734375 54.39501953125 -11.548583984375
-25.900146484375 61.366943359375 42.971435546875
-6.383544921875 17.2362060546875 24.135009765625
54.25 4.65966796875 40.3731689453125
8.175537109375 77.754638671875 -36.808349609375
13.328125 13.143798828125 8.114501953125
-7.934326171875 111.4091796875 -32.080078125
48.383544921875 48.9036865234375 -5.7757568359375
-23.277099609375 60.8944091796875 24.4798583984375
91.029541015625 -21.797119140625 60.4344482421875
78.67529296875 17.8616943359375 28.0133056640625
-11.4375 34.0361328125 14.28515625
-20.83984375 -31.0687255859375 103.727294921875
83.123291015625 66.9625244140625 -24.4837646484375
-22.81298828125 -19.763671875 103.0455322265625
-37.597900390625 3.1949462890625 80.4649658203125
60.342041015625 95.8240966796875 -54.552001953125
92.689697265625 32.5272216796875 11.8349609375
5.415283203125 -58.1982421875 105.6761474609375
44.84130859375 26.6173095703125 17.415771484375
65.176513671875 13.475341796875 31.4190673828125
78.810791015625 43.578857421875 -0.1326904296875
57.51123046875 43.63818359375 -0.0521240234375
6.954345703125 28.8914794921875 0.4884033203125
-9.9892578125 25.5323486328125 18.0562744140625
59.2802734375 83.4705810546875 -41.8665771484375
-33.3671875 16.6456298828125 92.18115234375
25.549560546875 2.9154052734375 42.4512939453125
82.66845703125 -49.382568359375 87.8287353515625
96.225830078125 -75.742431640625 40.330810546875
20.681396484375 18.6632080078125 1.908935546875
11.0107421875 30.288330078125 -9.8243408203125
-8.265625 46.6121826171875 4.921142578125
31.157958984375 0.2252197265625 44.7464599609375
95.384765625 -59.385498046875 108.7281494140625
71.95947265625 -54.7550048828125 102.3662109375
78.7412109375 59.363037109375 -16.4588623046875
74.41064453125 -29.003662109375 66.98291015625
-10.366455078125 -1.6478271484375 55.566650390625
-8.5107421875 100.5977783203125 -9.173095703125
65.044677734375 -33.377197265625 71.6021728515625
0.0361328125 -32.131103515625 70.42724609375
1.848388671875 -10.271484375 55.670654296875
-8.200927734375 99.0399169921875 -22.05908203125
-9.3349609375 -27.720703125 69.0
-5.42333984375 82.0498046875 -31.6746826171875
52.66015625 -56.4105224609375 96.8416748046875
60.825927734375 37.524658203125 5.9132080078125
-6.668212890625 -22.12744140625 67.3839111328125
65.463623046875 -47.239990234375 85.1507568359375
59.096923828125 -57.338623046875 105.4776611328125
72.912353515625 -46.26904296875 85.024169921875
85.115234375 44.1451416015625 -0.3858642578125
-4.07666015625 12.014892578125 32.0543212890625
67.6806640625 59.73193359375 -16.9154052734375
-22.10107421875 61.8775634765625 1.77783203125
79.436279296875 -57.51708984375 95.8780517578125
79.365966796875 101.9891357421875 -60.8636474609375
70.9326171875 -7.1517333984375 53.327880859375
53.923095703125 69.58544921875 -27.1297607421875
-27.426025390625 0.0692138671875 92.7318115234375
-9.13427734375 -10.9991455078125 -68.2919921875
-24.57666015625 -31.1470947265625 80.5206298828125
9.47802734375 63.00830078125 -20.950927734375
66.057861328125 5.1474609375 40.7099609375
27.486083984375 -25.2177734375 69.0762939453125
75.716552734375 30.253662109375 13.85791015625
-25.498779296875 63.09716796875 -3.2921142578125
19.3642578125 -1.874267578125 46.896240234375
-7.569580078125 108.027099609375 -15.66796875
25.7841796875 76.1307373046875 -33.8831787109375
67.96923828125 99.081298828125 -58.05419921875
-15.063232421875 -40.55029296875 91.397705078125
6.43310546875 53.1260986328125 -10.7354736328125
21.12109375 -40.7584228515625 87.4366455078125
-6.4892578125 96.0068359375 -43.197265625
76.4130859375 -43.0242919921875 81.52880859375
81.27392578125 -9.69775390625 56.1595458984375
83.24169921875 52.2606201171875 -8.6175537109375
11.34912109375 -36.579345703125 83.384765625
13.985107421875 100.6607666015625 -60.302490234375
87.40087890625 -27.71875 65.1375732421875
-15.600341796875 16.568359375 28.5191650390625
75.50830078125 75.9420166015625 -33.80712890625
-18.99951171875 61.396240234375 29.90576171875
6.40869140625 27.04833984375 12.6566162109375
53.509521484375 12.5689697265625 32.5360107421875
-14.96533203125 65.4840087890625 41.3868408203125
-20.48974609375 -15.625732421875 91.630126953125
79.09716796875 -25.2945556640625 61.8468017578125
69.7744140625 -60.302001953125 108.914306640625
-14.93408203125 -12.9193115234375 -68.819580078125
39.40869140625 35.3214111328125 -92.6033935546875
51.174560546875 78.3802490234375 -36.8958740234375
53.4580078125 101.4410400390625 -60.73486328125
-8.3486328125 83.0059814453125 -22.4002685546875
-4.521240234375 -10.5916748046875 55.7647705078125
12.36767578125 85.2030029296875 -97.343994140625
96.391357421875 -3.4207763671875 49.5828857421875
35.93994140625 84.0361328125 -42.9190673828125
35.630615234375 73.0244140625 -31.0911865234375
-29.988037109375 -26.9998779296875 76.2755126953125
44.6220703125 11.2197265625 33.5355224609375
-8.106201171875 88.8179931640625 -19.6998291015625
-8.21435546875 91.52783203125 -14.10888671875
-13.434326171875 -35.375732421875 75.3017578125
-31.699462890625 13.9195556640625 67.8275146484375
58.31201171875 -56.92822265625 96.2969970703125
-28.89501953125 23.260009765625 35.71923828125
0.99755859375 95.252197265625 -52.37890625
-19.8623046875 13.664306640625 60.1693115234375
-1.62060546875 28.4205322265625 15.2576904296875
39.8408203125 -91.8455810546875 -40.3624267578125
-30.81982421875 5.6668701171875 84.51025390625
88.768798828125 -45.6868896484375 83.7537841796875
20.679443359375 77.1107177734375 -35.5771484375
-5.254150390625 1.4703369140625 43.390869140625
-31.1279296875 3.720703125 74.4561767578125
19.760498046875 -13.4415283203125 59.1971435546875
97.177978515625 -52.2283935546875 97.923828125
14.039306640625 -62.8743896484375 110.7169189453125
15.746337890625 20.068359375 21.0894775390625
101.677490234375 -55.6142578125 104.9149169921875
81.079345703125 -32.6591796875 70.5562744140625
88.776611328125 -35.2056884765625 73.042724609375
-11.962646484375 30.626708984375 18.27783203125
-8.205322265625 33.1527099609375 10.2164306640625
-7.6103515625 66.810791015625 -10.75634765625
17.857177734375 -25.0120849609375 71.206298828125
-6.134521484375 37.1898193359375 5.836181640625
-20.964599609375 -36.02978515625 90.5908203125
-12.340576171875 -48.5989990234375 95.4837646484375
-8.373291015625 79.19287109375 -16.0162353515625
48.623779296875 -52.797607421875 91.1138916015625
71.615234375 84.282958984375 -42.4805908203125
85.651123046875 97.498046875 -55.95458984375
74.60009765625 26.7589111328125 17.576416015625
70.246337890625 17.30615234375 27.9044189453125
45.36962890625 74.4976806640625 -100.281005859375
-8.365478515625 116.441650390625 -22.3656005859375
82.384033203125 31.865966796875 12.4200439453125
55.561279296875 -49.8392333984375 88.004638671875
46.15869140625 34.669189453125 8.900634765625
60.6982421875 34.1500244140625 -86.0120849609375
-8.296630859375 100.57958984375 3.0111083984375
27.22314453125 21.775390625 22.3424072265625
49.474853515625 -1.03662109375 46.6864013671875
95.0830078125 4.177490234375 42.362548828125
57.609130859375 8.1005859375 37.1839599609375
56.10009765625 26.3670654296875 17.8709716796875
79.630126953125 9.7662353515625 35.154052734375
16.84228515625 86.9066162109375 -45.6025390625
40.017578125 -12.536865234375 -71.321044921875
68.83056640625 104.044921875 -63.4366455078125
76.66064453125 84.9947509765625 -43.262451171875
66.9755859375 27.088134765625 17.224853515625
-20.73779296875 2.5050048828125 53.7901611328125
7.3330078125 23.0089111328125 17.578369140625
12.397705078125 -54.373046875 101.943603515625
22.0615234375 12.467529296875 8.7735595703125
2.239501953125 -37.2362060546875 78.1993408203125
49.721435546875 62.563720703125 -20.2572021484375
3.7314453125 80.763427734375 -39.184814453125
77.9814453125 -55.5103759765625 104.1785888671875
-18.254150390625 26.760986328125 24.1427001953125
55.18798828125 -33.815185546875 71.43798828125
59.41650390625 -0.2386474609375 46.2469482421875
-2.884521484375 88.0811767578125 -42.1588134765625
42.771484375 39.4254150390625 3.8309326171875
4.12939453125 0.2164306640625 44.6307373046875
-7.853515625 105.0382080078125 -40.282958984375
56.501953125 35.3184814453125 8.2625732421875
-20.724609375 16.13720703125 37.1143798828125
74.822998046875 71.8419189453125 -29.5152587890625
57.611083984375 57.2452392578125 -14.7197265625
6.125244140625 87.389404296875 -46.485595703125
-9.38427734375 42.6986083984375 8.3062744140625
-20.08642578125 3.0008544921875 61.0037841796875
3.816650390625 -17.87060546875 63.522705078125
34.159423828125 26.782470703125 17.3992919921875
-5.9921875 -16.3525390625 61.853515625
7.50732421875 43.3470458984375 -7.6527099609375
22.71240234375 83.455810546875 -42.21484375
6.67822265625 94.479736328125 -54.338134765625
89.699951171875 -54.1668701171875 92.1993408203125
39.737060546875 -3.84130859375 49.6595458984375
7.45751953125 -62.829833984375 111.6522216796875
42.881103515625 70.980712890625 -28.8160400390625
92.314453125 -29.6953125 66.880126953125
2.43212890625 38.6685791015625 4.1754150390625
86.087646484375 -0.239501953125 46.56298828125
22.388427734375 36.5374755859375 -15.603759765625
43.20703125 88.8155517578125 -47.7723388671875
30.16845703125 101.9058837890625 -61.1634521484375
-27.369384765625 33.3411865234375 61.531005859375
13.35546875 5.63818359375 38.943115234375
82.40576171875 37.2371826171875 6.8558349609375
1.09130859375 90.3009033203125 -47.802490234375
3.44287109375 -4.3341064453125 49.3984375
39.805908203125 58.5205078125 -15.6724853515625
-19.331787109375 -51.341552734375 101.3096923828125
61.56494140625 51.0726318359375 -7.6441650390625
38.77392578125 25.9549560546875 -89.744873046875
14.6728515625 -27.88525390625 73.8924560546875
25.005859375 90.614013671875 -49.7481689453125
-23.15380859375 62.6422119140625 52.3251953125
7.387451171875 17.937255859375 8.7357177734375
-20.659423828125 -28.730712890625 85.2435302734375
88.22265625 55.291259765625 -11.86865234375
-19.053955078125 -2.697998046875 84.4775390625
-8.313232421875 92.1712646484375 -30.4317626953125
-10.024658203125 9.3873291015625 35.69091796875
-6.66845703125 110.143310546875 -24.8175048828125
85.352783203125 -56.1119384765625 97.376953125
37.568603515625 32.0565185546875 11.7099609375
32.202392578125 -4.9324951171875 50.410400390625
-23.597412109375 18.2550048828125 30.9185791015625
97.390869140625 -23.809814453125 62.541015625
3.635498046875 35.2420654296875 8.1195068359375
86.7890625 82.5511474609375 -40.5689697265625
58.5830078125 28.9888916015625 -85.6756591796875
-15.265380859375 -44.711181640625 95.025146484375
22.28271484375 -4.5389404296875 49.765380859375
-8.546142578125 101.5870361328125 -26.2049560546875
77.10546875 67.4578857421875 -24.9962158203125
-9.6845703125 14.8851318359375 27.1380615234375
55.704833984375 79.5264892578125 -38.2489013671875
68.469970703125 71.4967041015625 -29.238525390625
38.79345703125 5.8841552734375 39.0927734375
44.954345703125 52.669921875 -9.787109375
76.513427734375 97.634521484375 -56.507080078125
-9.9755859375 -0.2900390625 50.7425537109375
6.890380859375 10.9952392578125 33.1116943359375
83.426513671875 -56.6456298828125 105.2955322265625
54.864990234375 50.42431640625 -6.8162841796875
16.756591796875 72.4669189453125 -30.7991943359375
52.603515625 -42.802734375 80.7320556640625
19.1005859375 84.267333984375 -100.072509765625
-14.16796875 -36.498291015625 81.2618408203125
-22.28955078125 -22.6636962890625 87.788818359375
-22.367919921875 -8.7955322265625 95.3653564453125
39.821533203125 82.1068115234375 -40.7611083984375
-18.165771484375 46.6119384765625 58.0997314453125
62.77978515625 92.5455322265625 -51.216552734375
1.507080078125 -55.225830078125 102.8565673828125
-17.40576171875 9.8232421875 45.8165283203125
75.88671875 92.1416015625 -51.0560302734375
1.38671875 61.1895751953125 -17.662841796875
22.712646484375 18.07373046875 16.5537109375
90.72607421875 6.9283447265625 38.52197265625
13.4423828125 -39.573974609375 86.466552734375
40.550537109375 25.254150390625 19.02099609375
-20.8310546875 -43.1375732421875 103.14208984375
-2.89599609375 51.269287109375 -6.0185546875
-15.429443359375 21.5750732421875 26.0174560546875
-4.643310546875 -60.4296875 107.791015625
64.95068359375 -60.594970703125 109.489013671875
91.0400390625 1.041259765625 45.515869140625
92.867919921875 -5.5313720703125 51.9896240234375
84.633544921875 4.4111328125 41.2822265625
9.790771484375 -5.6790771484375 50.8848876953125
75.46875 -50.4754638671875 89.1251220703125
87.189208984375 41.019775390625 3.094970703125
6.111572265625 -13.7618408203125 -36.7703857421875
23.628173828125 -7.8411865234375 53.27392578125
63.607666015625 30.443359375 13.9365234375
93.721923828125 -48.7852783203125 86.8167724609375
-16.021728515625 63.61083984375 36.431884765625
40.5185546875 78.364501953125 -36.7008056640625
17.185546875 -60.0245361328125 107.3218994140625
-8.550048828125 83.197509765625 -8.9320068359375
-14.816162109375 -14.7559814453125 68.4735107421875
28.14990234375 8.5743408203125 36.284912109375
20.737060546875 13.8271484375 14.2784423828125
25.600341796875 14.9366455078125 29.38330078125
-28.198486328125 -32.58740234375 73.369140625
-8.52978515625 71.70166015625 -10.1170654296875
9.843017578125 18.545166015625 15.8338623046875
92.340576171875 35.9639892578125 8.6583251953125
-7.97998046875 63.7452392578125 -7.0596923828125
5.154052734375 4.53564453125 39.82080078125
-19.399658203125 29.8885498046875 60.42431640625
-8.36376953125 96.1441650390625 -13.39013671875
-19.87255859375 -22.7603759765625 96.4935302734375
50.30859375 98.54833984375 -57.8614501953125
-8.455322265625 86.2861328125 1.7545166015625
41.574951171875 -25.6710205078125 60.593505859375
91.359375 -54.4912109375 100.8248291015625
42.545166015625 14.0015869140625 30.4271240234375
22.2578125 -25.53759765625 72.6419677734375
-23.503662109375 -4.4154052734375 92.82763671875
84.129150390625 -46.0244140625 83.63623046875
87.293212890625 -6.216796875 52.4930419921875
98.074951171875 -33.9822998046875 74.3834228515625
62.583984375 7.74755859375 37.3262939453125
7.698486328125 72.9041748046875 -31.3785400390625
30.768310546875 28.8687744140625 14.927978515625
-15.29052734375 -4.2158203125 58.4495849609375
3.5810546875 67.07568359375 -24.846435546875
44.254150390625 31.0635986328125 12.7308349609375
4.984130859375 -42.7847900390625 89.67724609375
-9.955810546875 65.3260498046875 45.5965576171875
70.87060546875 40.3199462890625 3.340087890625
70.498291015625 -39.1279296875 77.96923828125
21.365478515625 19.404541015625 24.732177734375
38.09619140625 15.5133056640625 29.113525390625
6.995361328125 23.459716796875 8.1998291015625
73.939208984375 64.8770751953125 -22.4442138671875
68.3564453125 86.6409912109375 -44.8804931640625
48.497314453125 82.180419921875 -40.761962890625
55.89306640625 -38.6793212890625 76.27587890625
19.479736328125 -18.619140625 64.697265625
60.764404296875 -32.2156982421875 70.4205322265625
20.353515625 99.9561767578125 -59.3201904296875
57.8798828125 100.5306396484375 -59.4052734375
40.807373046875 92.22314453125 -51.1099853515625
72.291748046875 78.259521484375 -36.16552734375
4.984619140625 49.9285888671875 -7.37109375
49.6669921875 55.9903564453125 -13.08740234375
-22.70068359375 64.216064453125 8.5919189453125
54.72900390625 -57.6287841796875 106.80615234375
-6.31787109375 78.663330078125 -26.6864013671875
23.29638671875 -46.3218994140625 94.3209228515625
40.494384765625 42.2213134765625 0.9898681640625
65.373046875 34.4991455078125 9.53173828125
71.191162109375 -31.7581787109375 70.1414794921875
-20.970703125 -38.65625 97.710693359375
20.188232421875 5.10400390625 39.3900146484375
62.86181640625 -5.7105712890625 52.2918701171875
9.721923828125 16.799560546875 26.3333740234375
-2.36328125 18.9534912109375 22.5
-0.231689453125 -49.425048828125 96.55859375
-5.3251953125 26.44384765625 16.970947265625
-19.438232421875 38.9454345703125 58.7376708984375
-4.216552734375 72.703125 -24.6865234375
57.635009765625 73.915283203125 -31.77490234375
31.16552734375 80.350830078125 -39.239501953125
-8.790283203125 53.99267578125 6.709228515625
16.021728515625 -52.2735595703125 99.6434326171875
53.25732421875 39.2559814453125 -87.35302734375
-24.67236328125 65.9837646484375 43.7413330078125
-24.193115234375 59.6474609375 17.60546875
-0.633544921875 9.254638671875 34.97021484375
-8.169677734375 111.4547119140625 -19.0220947265625
-20.08544921875 62.6976318359375 49.0076904296875
77.9189453125 -36.016357421875 74.602294921875
50.478271484375 -31.8248291015625 68.927734375
-4.759033203125 -4.895751953125 50.1055908203125
45.9072265625 -4.064453125 50.1259765625
-13.62109375 -51.2706298828125 99.24169921875
-23.226318359375 0.9610595703125 86.085693359375
-10.51025390625 -40.8564453125 87.4752197265625
-8.013427734375 55.4677734375 -1.568115234375
28.723876953125 73.118896484375 -32.3258056640625
47.2548828125 8.73095703125 36.516845703125
-0.00244140625 -22.9229736328125 68.310791015625
9.4453125 -56.8604736328125 104.245361328125
-19.356689453125 -5.694580078125 65.8544921875
-30.785400390625 11.049560546875 71.139404296875
48.073486328125 45.6202392578125 -2.5054931640625
61.591552734375 20.3311767578125 24.29248046875
-34.608154296875 1.1064453125 77.8812255859375
-8.72802734375 65.7086181640625 -1.897705078125
-8.275146484375 90.193359375 4.1165771484375
67.734619140625 -52.8017578125 91.0145263671875
94.785400390625 11.9793701171875 33.0697021484375
2.999755859375 -52.2906494140625 99.805419921875
-7.764892578125 104.96533203125 -34.2454833984375
16.384033203125 93.563720703125 -52.692138671875
22.824462890625 -32.4669189453125 80.1522216796875
48.417236328125 21.5394287109375 22.3963623046875
71.5546875 53.3726806640625 -10.2054443359375
12.63232421875 82.836181640625 -41.84814453125
9.958251953125 25.7427978515625 -5.2496337890625
-6.59716796875 46.3035888671875 0.7449951171875
3.780029296875 -38.4808349609375 84.470947265625
-11.890380859375 21.9862060546875 22.1531982421875
14.580322265625 23.300537109375 -2.7900390625
-0.360107421875 66.45361328125 -21.845458984375
-21.030517578125 66.822265625 11.9339599609375
7.302490234375 38.408935546875 -5.3402099609375
51.91552734375 72.2667236328125 -30.1724853515625
-1.85498046875 39.4720458984375 3.468994140625
77.9833984375 40.6556396484375 3.0755615234375
48.985595703125 -45.8731689453125 84.5682373046875
-37.65673828125 14.3984375 70.5255126953125
29.925537109375 -9.525634765625 55.267822265625
46.3681640625 41.273193359375 2.082763671875
73.559326171875 -35.8350830078125 73.997314453125
60.3818359375 -9.124267578125 54.84375
-6.7451171875 62.3902587890625 43.261962890625
-19.83837890625 51.6641845703125 57.70068359375
-22.870849609375 63.37353515625 34.274169921875
-21.0546875 -53.2135009765625 104.8983154296875
-21.8408203125 -32.2655029296875 76.75390625
69.8896484375 -55.8197021484375 97.190673828125
22.324951171875 15.6724853515625 5.677734375
42.736083984375 -93.8765869140625 -29.96875
43.8994140625 47.3663330078125 -3.981689453125
80.564208984375 86.695556640625 -45.249267578125
-36.340087890625 -37.291015625 57.6949462890625
34.6826171875 2.375244140625 42.7457275390625
41.910888671875 65.5999755859375 -23.227783203125
61.574951171875 -4.8299560546875 -45.5323486328125
6.320556640625 45.318603515625 -3.9287109375
-8.562744140625 94.6260986328125 -0.818115234375
-38.32080078125 9.502685546875 81.06494140625
78.220458984375 1.0411376953125 44.21435546875
69.8828125 11.344970703125 33.761962890625
-4.009765625 56.8875732421875 -9.313720703125
53.787841796875 -6.6629638671875 52.6671142578125
11.704833984375 70.239501953125 -28.6033935546875
27.037109375 26.08251953125 -5.2974853515625
-1.88916015625 100.824462890625 -55.3350830078125
14.5361328125 12.76318359375 14.2469482421875
51.818603515625 -39.98095703125 77.5208740234375
40.087890625 21.71533203125 22.6055908203125
-5.65283203125 67.3875732421875 -16.3199462890625
52.13818359375 28.281005859375 15.92236328125
10.44384765625 74.340087890625 -100.0223388671875
7.598876953125 32.4193115234375 -11.44091796875
-9.96337890625 9.322021484375 44.54052734375
84.99365234375 -3.3331298828125 49.4573974609375
10.3203125 -20.62158203125 66.84912109375
81.758544921875 75.8458251953125 -33.440673828125
-1.177734375 73.5294189453125 -28.636474609375
6.960693359375 31.533447265625 8.7703857421875
77.68505859375 -6.6195068359375 53.2061767578125
-3.7490234375 62.66748046875 -14.7100830078125
89.28466796875 23.589599609375 21.719482421875
30.494873046875 55.559814453125 -81.1844482421875
61.36474609375 102.744873046875 -61.5853271484375
9.074462890625 -32.91015625 79.0068359375
45.13671875 104.6883544921875 -63.9124755859375
-25.5283203125 63.5291748046875 11.7655029296875
24.1328125 20.6414794921875 0.1256103515625
41.72119140625 14.07373046875 68.7061767578125
-1.88720703125 79.490234375 -34.2305908203125
68.231689453125 1.733642578125 43.0313720703125
-29.5458984375 14.266357421875 91.1617431640625
66.86376953125 -54.69873046875 101.779052734375
74.141845703125 47.76025390625 -4.1361083984375
23.15673828125 24.2901611328125 -3.9447021484375
91.3759765625 -57.2635498046875 106.26416015625
-23.177734375 16.4073486328125 65.2340087890625
36.034912109375 87.26708984375 -45.9471435546875
-7.79833984375 96.3052978515625 -39.1492919921875
-8.068603515625 103.41552734375 -0.634033203125
94.452392578125 -55.55419921875 98.106689453125
-8.338623046875 87.0604248046875 -4.2066650390625
66.210693359375 76.099853515625 -33.852294921875
83.283935546875 -39.4288330078125 77.3408203125
-19.520263671875 10.1807861328125 68.6190185546875
90.997314453125 48.00537109375 -4.349365234375
36.03759765625 77.04833984375 -35.3055419921875
52.261962890625 92.4334716796875 -50.98388671875
8.02392578125 -10.6748046875 56.1497802734375
-23.354248046875 3.8662109375 74.4117431640625
83.895751953125 69.9058837890625 -27.4066162109375
10.28271484375 -42.525634765625 89.3848876953125
57.81982421875 23.695068359375 20.6412353515625
-4.97216796875 -37.2882080078125 76.6925048828125
65.005126953125 33.650146484375 -85.474853515625
-14.663818359375 4.8387451171875 50.4141845703125
-6.292236328125 -31.803466796875 70.361572265625
19.32763671875 34.4334716796875 -12.8167724609375
-7.49072265625 -45.7244873046875 92.5994873046875
48.697265625 -34.6845703125 72.7718505859375
1.233154296875 83.8599853515625 -41.330322265625
-28.70068359375 19.280517578125 37.0294189453125
-17.2744140625 13.460205078125 37.0267333984375
70.94775390625 91.7933349609375 -50.3760986328125
43.552734375 35.9625244140625 -88.066162109375
-18.698486328125 -6.984619140625 87.5029296875
83.2421875 11.255126953125 33.6556396484375
87.879150390625 38.2166748046875 6.1207275390625
-19.107177734375 62.054931640625 38.77978515625
9.555419921875 19.1329345703125 1.5572509765625
-21.13525390625 -12.68408203125 96.2569580078125
-10.21728515625 -14.2235107421875 61.3092041015625
58.383056640625 77.1529541015625 -35.3189697265625
6.23095703125 -36.268310546875 74.709716796875
-19.67724609375 17.1983642578125 29.138427734375
69.716796875 -1.0096435546875 46.5501708984375
-5.636474609375 13.981689453125 28.7265625
-10.9599609375 -54.6390380859375 101.442138671875
52.569580078125 21.3638916015625 22.990966796875
59.675048828125 89.9287109375 -48.49462890625
10.49462890625 -13.21923828125 58.9439697265625
-8.466796875 73.3575439453125 -6.3084716796875
6.721435546875 19.782958984375 21.9427490234375
-20.514404296875 23.063720703125 59.668701171875
23.380615234375 -55.6583251953125 103.92578125
77.388916015625 13.0897216796875 31.8995361328125
4.578369140625 -45.993896484375 93.2135009765625
57.2705078125 67.782470703125 -25.4835205078125
5.3212890625 84.603515625 -43.5264892578125
68.33349609375 19.3726806640625 24.8695068359375
-8.64013671875 52.769287109375 10.661376953125
7.065673828125 25.1590576171875 -1.6407470703125
86.65576171875 21.227294921875 23.864013671875
39.531982421875 -1.1197509765625 46.1300048828125
59.712890625 29.236328125 15.03125
22.0478515625 103.808349609375 -63.3685302734375
-23.367431640625 14.09033203125 68.95849609375
70.122314453125 7.807373046875 37.6309814453125
-29.10107421875 0.7379150390625 76.4593505859375
44.35546875 2.9039306640625 42.34912109375
33.74365234375 91.011474609375 -50.4033203125
73.712646484375 28.0487060546875 -84.634765625
83.49609375 17.7657470703125 27.65380859375
2.464599609375 56.959228515625 -14.2138671875
51.275390625 16.0753173828125 28.8079833984375
80.172119140625 -40.9735107421875 79.788330078125
-8.421142578125 98.90283203125 -32.39501953125
38.016845703125 -7.9930419921875 53.5782470703125
-17.43359375 -37.0452880859375 87.5748291015625
19.185546875 90.8358154296875 -98.4415283203125
89.84423828125 14.8009033203125 30.5537109375
57.638671875 2.9642333984375 42.6644287109375
8.7548828125 -48.556640625 95.6668701171875
-2.552978515625 -55.76123046875 103.08935546875
93.498046875 23.0469970703125 21.5015869140625
-10.240478515625 112.244873046875 -35.60595703125
-23.54296875 -15.577880859375 100.60205078125
0.0517578125 -16.769775390625 62.3455810546875
-1.50439453125 24.508544921875 18.431640625
-0.653076171875 -62.0018310546875 109.297119140625
63.843505859375 -25.8555908203125 64.9698486328125
-19.095458984375 54.739501953125 51.8118896484375
70.54296875 -26.8497314453125 65.161865234375
60.461669921875 16.6778564453125 27.931884765625
84.880126953125 106.103271484375 -64.971435546875
80.9814453125 92.8072509765625 -51.327880859375
8.47509765625 -51.3167724609375 98.6978759765625
14.78759765625 14.7442626953125 29.4407958984375
-20.85009765625 -29.634765625 95.6365966796875
92.6162109375 -74.1273193359375 41.8511962890625
54.337890625 -2.3577880859375 48.763916015625
-9.600830078125 2.4326171875 42.6756591796875
93.390869140625 -9.0413818359375 55.25439453125
50.73291015625 67.8385009765625 -25.29833984375
91.423095703125 -51.1614990234375 89.685791015625
36.407470703125 -11.2281494140625 -72.655517578125
60.7919921875 54.0177001953125 -11.2515869140625
56.059814453125 85.8917236328125 -44.7862548828125
-19.235595703125 -43.93896484375 94.71435546875
52.609619140625 -52.3919677734375 90.4818115234375
86.463134765625 -14.2222900390625 -44.212890625
63.318603515625 -2.8016357421875 48.232177734375
-20.39697265625 24.4561767578125 40.7640380859375
88.466796875 -24.88720703125 62.4464111328125
87.070556640625 67.6185302734375 -25.0792236328125
-26.232177734375 17.7259521484375 34.2275390625
83.71630859375 80.3857421875 -38.0465087890625
14.22509765625 17.0191650390625 5.220703125
59.252685546875 -45.021728515625 82.732666015625
7.1181640625 33.6522216796875 -6.27490234375
60.34375 41.0169677734375 2.248291015625
-20.404052734375 -31.75732421875 89.1375732421875
41.97802734375 98.5850830078125 -57.90625
40.3876953125 9.8199462890625 35.0556640625
-20.968994140625 -23.95947265625 102.77978515625
19.9580078125 97.023681640625 -56.2724609375
-7.438232421875 74.32421875 -18.5772705078125
-5.01513671875 -50.8275146484375 97.7117919921875
19.715087890625 -44.201904296875 91.111572265625
-27.681640625 14.9810791015625 68.634033203125
93.842529296875 -45.4759521484375 83.47021484375
25.840087890625 -27.11865234375 73.5185546875
-9.982177734375 -8.301513671875 57.2926025390625
91.091552734375 28.2462158203125 16.2891845703125
42.037109375 101.7747802734375 -61.018798828125
-6.183837890625 5.2669677734375 39.27197265625
-5.456298828125 98.2374267578125 -48.021240234375
75.837646484375 -56.2342529296875 93.8990478515625
-15.46337890625 -8.86767578125 62.604736328125
49.35888671875 101.7581787109375 -60.862060546875
60.848388671875 -55.345947265625 93.647216796875
-4.2333984375 84.8060302734375 -37.0477294921875
71.15576171875 -3.8260498046875 49.6292724609375
54.2900390625 55.161376953125 -12.3614501953125
83.96826171875 27.912109375 16.9705810546875
97.7890625 -26.4066162109375 65.5335693359375
97.668212890625 -57.102294921875 106.028564453125
80.09423828125 -3.716064453125 49.4317626953125
32.034912109375 11.660888671875 33.1134033203125
-33.6103515625 16.0225830078125 88.2607421875
9.80859375 89.89111328125 -49.2178955078125
47.554931640625 15.0177001953125 69.08642578125
-8.443115234375 75.377197265625 -11.60693359375
84.723876953125 90.1920166015625 -48.8648681640625
84.668212890625 -8.5906982421875 54.4324951171875
-10.3564453125 64.1502685546875 41.343994140625
13.28125 16.8487548828125 16.8299560546875
58.92724609375 -52.4359130859375 90.97119140625
-8.646240234375 75.4774169921875 3.54931640625
-22.9619140625 61.793212890625 28.3162841796875
-8.726806640625 108.1280517578125 -0.765869140625
8.873779296875 100.3828125 -60.088134765625
-4.473388671875 92.852783203125 -44.4500732421875
7.17333984375 35.3626708984375 -14.536865234375
-15.671630859375 65.858154296875 46.7642822265625
-6.274169921875 52.10498046875 -2.679443359375
68.951416015625 55.5474853515625 -12.479248046875
-7.904296875 105.2208251953125 -45.878662109375
26.65234375 83.3096923828125 -42.1258544921875
47.92578125 5.97265625 39.25341796875
2.216064453125 14.072021484375 28.4775390625
67.932861328125 -44.9732666015625 83.07666015625
83.25830078125 1.6458740234375 43.7305908203125
81.330322265625 45.80126953125 -2.382080078125
-28.947021484375 6.37255859375 87.9027099609375
-36.7470703125 6.9560546875 72.595458984375
-27.11572265625 1.847900390625 79.76025390625
-15.60986328125 -57.1961669921875 107.3956298828125
-13.54638671875 -8.551513671875 -68.1287841796875
43.693359375 83.0032958984375 -41.4754638671875
65.975830078125 102.218505859375 -61.447265625
69.775146484375 81.044677734375 -39.258056640625
67.82568359375 66.198486328125 -23.6685791015625
82.28125 6.389892578125 38.8111572265625
-16.103271484375 29.865966796875 20.1474609375
25.441162109375 14.281494140625 7.9683837890625
18.2265625 39.403076171875 -19.7086181640625
45.893798828125 68.2982177734375 -25.898681640625
28.271728515625 5.387451171875 39.56787109375
52.115478515625 -56.0115966796875 92.98388671875
0.13818359375 1.06396484375 43.49072265625
50.637451171875 39.878173828125 3.446044921875
-24.757080078125 -0.2879638671875 89.515380859375
12.578857421875 76.23828125 -34.88720703125
85.497802734375 -25.7821044921875 -26.5582275390625
17.121337890625 75.167236328125 -33.6058349609375
-6.481689453125 59.3831787109375 -7.4202880859375
27.61669921875 26.564697265625 14.881103515625
18.8408203125 80.6258544921875 -39.40478515625
82.490478515625 99.0294189453125 -57.6492919921875
93.1279296875 18.3944091796875 26.7489013671875
33.732421875 100.205322265625 -59.49609375
-8.226318359375 90.910888671875 -4.7333984375
-21.048828125 -30.3800048828125 99.5174560546875
38.01171875 102.1796875 -61.698486328125
75.595703125 -54.4891357421875 101.032958984375
0.50048828125 50.3974609375 -7.9727783203125
-20.93798828125 -33.2275390625 80.68310546875
54.123779296875 18.36962890625 26.2606201171875
92.311767578125 -37.043701171875 74.812744140625
-12.79833984375 14.3785400390625 31.7901611328125
76.423095703125 6.1187744140625 39.3001708984375
14.524658203125 90.7149658203125 -49.54052734375
63.66357421875 72.330810546875 -29.965087890625
52.115234375 77.3519287109375 -99.2628173828125
3.216552734375 44.17529296875 -1.472900390625
86.52685546875 50.492431640625 -7.00537109375
91.4052734375 -32.1224365234375 69.8692626953125
40.759033203125 45.451904296875 -2.2271728515625
0.041748046875 33.8292236328125 9.7188720703125
30.15771484375 -2.31103515625 47.47705078125
54.626953125 33.1346435546875 10.8311767578125
8.614501953125 13.6820068359375 7.5498046875
79.14208984375 51.0703125 -7.41943359375
-16.833251953125 1.7261962890625 53.2708740234375
58.3564453125 -6.5850830078125 52.769775390625
84.628173828125 -26.8548583984375 -30.59033203125
12.89453125 1.8702392578125 43.1978759765625
-20.621826171875 57.6976318359375 20.9393310546875
-8.5087890625 71.1629638671875 1.3447265625
-20.944580078125 19.6654052734375 39.3060302734375
86.2822265625 -52.407470703125 90.5059814453125
-8.05517578125 99.3216552734375 -18.208251953125
68.178955078125 42.0810546875 1.2440185546875
65.384765625 -36.2193603515625 74.518310546875
13.036865234375 -57.673583984375 105.3236083984375
62.006103515625 61.915771484375 -19.392822265625
-27.533447265625 3.96826171875 92.1705322265625
-28.528076171875 -31.2921142578125 78.1011962890625
20.5947265625 86.1939697265625 -45.320068359375
-3.033935546875 -33.9964599609375 71.738037109375
-20.913818359375 -48.05078125 100.1737060546875
69.1591796875 96.6728515625 -55.3377685546875
47.16796875 16.26025390625 28.20703125
4.155517578125 21.4466552734375 19.568115234375
-8.352783203125 80.332763671875 -5.3193359375
37.60693359375 -89.6219482421875 -42.5142822265625
3.442138671875 -31.1416015625 -67.8822021484375
83.83837890625 -26.642822265625 64.316650390625
-10.5234375 -8.8138427734375 62.2789306640625
84.060302734375 64.376708984375 -21.856689453125
48.641845703125 26.6939697265625 17.5225830078125
55.322509765625 10.315185546875 35.1082763671875
-17.5908203125 -32.0477294921875 -59.7886962890625
-5.5859375 101.438232421875 -50.526611328125
38.391845703125 48.1224365234375 -5.06201171875
17.630126953125 -15.687255859375 61.408447265625
-4.969970703125 103.851318359375 -53.90087890625
13.40771484375 37.5206298828125 -16.7684326171875
79.193359375 -57.9793701171875 106.7723388671875
85.090087890625 -59.8216552734375 108.3480224609375
-8.265380859375 109.0147705078125 -41.435302734375
6.971435546875 56.39501953125 -14.0548095703125
38.900634765625 52.105224609375 -8.554443359375
46.33935546875 73.5653076171875 -31.4359130859375
44.189697265625 -9.1024169921875 55.4864501953125
52.4775390625 37.2701416015625 6.275146484375
48.072998046875 -39.7423095703125 77.286865234375
3.77587890625 -60.435546875 108.215087890625
-0.72705078125 6.2894287109375 38.194580078125
40.526123046875 37.307861328125 5.975341796875
37.10302734375 34.537841796875 8.838623046875
-0.92578125 102.6444091796875 -58.5870361328125
64.384765625 -9.15576171875 -44.4066162109375
-19.432373046875 0.91796875 64.207763671875
-34.262451171875 4.9622802734375 83.1923828125
10.57958984375 11.527587890625 32.691650390625
64.731201171875 80.1632080078125 -38.433837890625
-8.44580078125 81.3349609375 0.623046875
-2.450927734375 45.0977783203125 -2.535888671875
-31.822998046875 16.666259765625 65.2850341796875
12.24365234375 67.313720703125 -25.3828125
-19.349365234375 -5.4609375 60.1767578125
79.951416015625 81.4847412109375 -39.4954833984375
63.38525390625 84.662109375 -43.20263671875
-6.984375 90.3770751953125 -36.4549560546875
0.319580078125 -46.847900390625 93.9105224609375
10.40283203125 58.3460693359375 -15.9102783203125
63.122314453125 -58.4881591796875 107.0067138671875
-7.721435546875 -8.9281005859375 54.0191650390625
-17.21337890625 -33.66748046875 74.0623779296875
75.443359375 103.0234375 -61.7845458984375
86.50927734375 -15.8983154296875 -40.87939453125
16.201416015625 -11.550537109375 57.005859375
53.39013671875 63.0076904296875 -20.765380859375
86.800537109375 57.8289794921875 -14.3818359375
-27.3818359375 -20.7646484375 105.231689453125
87.767333984375 -41.8516845703125 80.352294921875
7.4931640625 -38.2332763671875 83.4730224609375
-7.467529296875 86.6220703125 -30.8529052734375
9.68994140625 5.130126953125 39.3387451171875
-0.620361328125 75.545166015625 -31.7227783203125
64.265380859375 89.58740234375 -48.405029296875
83.34130859375 -30.1346435546875 67.90380859375
3.89794921875 28.93994140625 14.627685546875
-26.912353515625 -28.686767578125 82.888671875
2.948974609375 78.043701171875 -36.2972412109375
-6.78076171875 10.2327880859375 33.9649658203125
49.415771484375 -7.38525390625 53.1072998046875
-19.79248046875 8.1220703125 62.4580078125
61.833251953125 44.5777587890625 -1.178955078125
1.972900390625 -34.6397705078125 72.3336181640625
18.966552734375 20.2396240234375 4.7811279296875
63.514404296875 10.8720703125 34.7991943359375
73.0625 59.240234375 -16.3441162109375
18.70556640625 29.95703125 -9.63134765625
78.4013671875 -30.88671875 68.7431640625
46.22314453125 92.9571533203125 -51.9813232421875
91.037353515625 41.635498046875 2.109375
-8.857177734375 19.11962890625 22.1597900390625
-38.655517578125 7.1080322265625 75.8798828125
84.55859375 -33.763916015625 71.7900390625
80.041015625 -43.6903076171875 82.2567138671875
63.025146484375 77.1722412109375 -35.332275390625
75.8388671875 29.5638427734375 -82.0535888671875
31.69580078125 22.7081298828125 21.291748046875
97.424072265625 -53.830322265625 102.472900390625
-38.666015625 10.331787109375 73.3177490234375
18.17236328125 -20.9195556640625 67.2291259765625
50.138916015625 37.626953125 -88.7344970703125
17.20166015625 66.2811279296875 -25.62109375
24.385986328125 21.4613037109375 17.77783203125
29.482421875 15.64453125 28.90234375
7.836669921875 70.1522216796875 -28.1492919921875
72.879150390625 97.9569091796875 -56.705078125
22.35205078125 1.446044921875 43.432373046875
23.615478515625 -25.408447265625 67.7388916015625
86.924560546875 12.858642578125 32.5693359375
89.026611328125 26.078369140625 18.8404541015625
60.642333984375 -39.6104736328125 77.377197265625
34.3466796875 29.73193359375 13.9432373046875
-30.48388671875 27.9793701171875 62.7061767578125
61.226318359375 22.7513427734375 21.488037109375
93.45458984375 -39.845947265625 77.6881103515625
94.4970703125 -21.335205078125 61.4039306640625
46.376953125 -30.3720703125 67.2869873046875
-10.684814453125 -15.793212890625 67.623291015625
11.20654296875 103.23046875 -62.8544921875
71.782470703125 -57.4041748046875 105.8021240234375
76.064697265625 45.294677734375 -1.7552490234375
-10.645751953125 -19.4183349609375 67.115966796875
18.14208984375 25.686767578125 -5.178466796875
-13.660400390625 35.37109375 16.8074951171875
77.4111328125 -26.6966552734375 64.7166748046875
70.168701171875 46.6722412109375 -3.4718017578125
6.5498046875 -24.1595458984375 68.54052734375
46.8916015625 96.294677734375 -55.177490234375
2.52001953125 -14.415283203125 59.70703125
0.75927734375 16.3609619140625 25.029541015625
77.718505859375 61.7198486328125 -18.9791259765625
82.205322265625 24.1904296875 20.31591796875
64.81005859375 -23.995849609375 60.830810546875
14.584228515625 -7.817138671875 53.0621337890625
56.145263671875 -43.4578857421875 81.447509765625
38.872802734375 18.6358642578125 25.6654052734375
93.572265625 -1.492431640625 47.62451171875
86.733642578125 -37.25439453125 75.1522216796875
20.815185546875 8.0191650390625 36.5491943359375
88.437744140625 -55.95068359375 99.1834716796875
76.497314453125 36.2879638671875 7.622314453125
70.515625 27.4129638671875 16.844482421875
2.313232421875 41.2320556640625 1.6895751953125
-8.177001953125 98.135009765625 -6.6080322265625
75.510009765625 33.04736328125 11.3275146484375
84.908935546875 77.0263671875 -34.634033203125
-34.63671875 10.7955322265625 86.686279296875
17.3076171875 -49.1107177734375 96.5074462890625
14.4951171875 -21.755859375 68.00927734375
-23.26904296875 1.0753173828125 80.4921875
-10.7490234375 11.08056640625 38.7423095703125
77.209228515625 -1.9095458984375 48.390625
6.94970703125 75.248291015625 -33.94873046875
39.370361328125 97.0228271484375 -56.0572509765625
-10.192626953125 -3.575927734375 49.3958740234375
26.41455078125 96.596923828125 -55.8974609375
2.929931640625 -40.795654296875 87.561279296875
62.73876953125 67.4906005859375 -24.9886474609375
-26.225341796875 59.8082275390625 3.6273193359375
47.677490234375 70.9334716796875 -101.329833984375
58.5380859375 64.5926513671875 -22.2420654296875
61.220458984375 14.128662109375 30.6893310546875
-23.153564453125 19.5279541015625 63.41455078125
-20.40087890625 -46.40234375 96.9794921875
66.237548828125 -41.4898681640625 79.3980712890625
17.922607421875 19.8619384765625 24.0333251953125
-1.475341796875 47.69482421875 -76.0107421875
79.13623046875 -50.1702880859375 88.9078369140625
-28.282470703125 -28.9957275390625 73.4752197265625
-20.116455078125 59.3360595703125 24.1326904296875
59.16455078125 -54.907470703125 100.18505859375
90.48095703125 9.281494140625 35.7896728515625
61.638671875 -56.113037109375 97.18896484375
-6.964599609375 -48.6729736328125 95.6270751953125
60.890869140625 1.9925537109375 43.93994140625
51.552978515625 31.4862060546875 12.43603515625
-6.58984375 -37.3909912109375 80.62646484375
14.06298828125 8.8912353515625 35.5938720703125
89.69873046875 61.89599609375 -18.7550048828125
6.62890625 12.8404541015625 30.1251220703125
77.72021484375 20.8880615234375 23.2955322265625
67.9765625 -56.446533203125 93.8858642578125
-3.16357421875 69.7471923828125 -22.5003662109375
-8.28466796875 79.7869873046875 -21.004150390625
-16.94140625 -35.4361572265625 83.1259765625
-27.927001953125 23.4642333984375 39.422119140625
57.705810546875 -26.6627197265625 64.6749267578125
-8.121826171875 68.9949951171875 6.54248046875
-14.545654296875 62.0064697265625 43.41357421875
-27.6728515625 -14.94970703125 101.4349365234375
-28.375244140625 2.9447021484375 82.8331298828125
8.74853515625 17.9735107421875 12.562255859375
42.064697265625 -15.4718017578125 -72.3143310546875
-41.330322265625 -51.61572265625 -55.8778076171875
29.65771484375 95.6007080078125 -54.9462890625
19.925537109375 21.6578369140625 0.2691650390625
27.4833984375 85.84375 -44.5098876953125
24.2998046875 12.6395263671875 31.7642822265625
38.54736328125 -24.5513916015625 62.607666015625
75.1640625 16.4989013671875 28.149169921875
25.6025390625 -3.849365234375 48.967041015625
83.297119140625 47.8896484375 -4.5587158203125
19.98193359375 -47.4998779296875 94.6427001953125
14.6240234375 -16.9267578125 62.653076171875
71.892333984375 -57.1475830078125 94.593994140625
65.476806640625 61.7418212890625 -19.210693359375
-20.2255859375 -9.885009765625 65.5013427734375
-23.634521484375 22.1175537109375 39.817626953125
66.685302734375 31.931640625 12.37646484375
45.255615234375 62.5828857421875 -20.2833251953125
84.501953125 -54.846435546875 102.301025390625
77.484375 -56.0631103515625 98.465576171875
-14.7060546875 13.434814453125 39.3662109375
85.26025390625 0.6256103515625 -61.0184326171875
31.625732421875 -61.537841796875 108.85498046875
44.95458984375 -25.8419189453125 62.0418701171875
76.458251953125 100.167236328125 -58.88037109375
25.5234375 33.4898681640625 -13.206298828125
38.2236328125 71.909912109375 -29.0745849609375
65.000732421875 87.45068359375 -45.7733154296875
32.40576171875 78.1136474609375 -36.70947265625
-22.6533203125 61.7669677734375 -1.827880859375
12.018798828125 65.0458984375 -22.7724609375
49.827880859375 11.5357666015625 33.0570068359375
69.42333984375 -9.316162109375 55.5662841796875
35.292724609375 -6.0177001953125 51.681640625
88.4404296875 32.0362548828125 12.3223876953125
14.0048828125 11.2469482421875 11.186279296875
23.3505859375 -10.8040771484375 56.37890625
-8.5615234375 84.0416259765625 4.710205078125
-11.204833984375 -38.2347412109375 83.677490234375
-10.00146484375 -0.2769775390625 47.0289306640625
2.20947265625 -7.969482421875 53.1287841796875
31.267578125 17.9521484375 26.4549560546875
42.740478515625 73.3482666015625 -31.4737548828125
76.494140625 78.291748046875 -36.127197265625
6.333984375 39.512451171875 2.213623046875
49.701171875 75.8057861328125 -33.9615478515625
82.88671875 37.4854736328125 -82.0679931640625
68.39990234375 14.3018798828125 30.532470703125
-7.98681640625 102.317138671875 -6.2374267578125
84.66552734375 42.64599609375 -83.2392578125
25.458984375 37.2620849609375 -17.54248046875
-0.671630859375 21.55126953125 19.968505859375
10.829833984375 85.0047607421875 -43.802490234375
75.3642578125 -53.0872802734375 91.4945068359375
7.066162109375 25.1044921875 2.40478515625
7.203857421875 64.89453125 -22.6868896484375
86.8408203125 -57.5513916015625 106.069091796875
-7.908203125 112.689697265625 -22.8897705078125
26.10791015625 23.71044921875 19.745361328125
-22.803955078125 58.7568359375 55.2462158203125
43.203125 58.4158935546875 -15.9923095703125
74.43701171875 40.5203857421875 2.961181640625
76.9638671875 -60.428466796875 109.074951171875
7.1328125 32.1795654296875 1.3812255859375
-8.8037109375 46.176513671875 8.2603759765625
-28.581298828125 23.0823974609375 32.3282470703125
47.228515625 78.726806640625 -37.060791015625
-8.132568359375 92.221923828125 -20.650390625
96.212158203125 -48.9808349609375 89.1328125
-10.309326171875 6.7393798828125 48.4608154296875
66.007080078125 24.91455078125 19.6614990234375
37.423095703125 92.827392578125 -51.9229736328125
-20.239501953125 -15.3660888671875 69.7034912109375
-20.61376953125 -6.756591796875 90.3048095703125
-8.301513671875 97.1680908203125 1.427001953125
17.899658203125 17.2510986328125 26.850341796875
-8.849365234375 57.06396484375 3.6260986328125
74.739013671875 11.539306640625 33.3460693359375
58.544677734375 -30.4605712890625 68.1959228515625
14.186767578125 34.300048828125 -13.1484375
-20.433837890625 -24.3900146484375 90.6519775390625
35.932861328125 -9.811279296875 56.1741943359375
71.703369140625 103.1328125 -61.9002685546875
-8.764404296875 -59.220458984375 106.6983642578125
3.83447265625 100.216552734375 -59.4058837890625
-8.13525390625 94.22265625 -25.1395263671875
-26.656494140625 11.35400390625 92.6650390625
51.30517578125 1.09423828125 44.8175048828125
-3.03662109375 -38.5838623046875 84.4541015625
53.551025390625 -28.0201416015625 65.595458984375
12.142333984375 -48.023681640625 95.4400634765625
