6.48291015625 71.5560302734375 -0.8291015625
40.82666015625 35.069580078125 34.2967529296875
32.484130859375 8.5758056640625 61.095947265625
45.35205078125 41.07958984375 26.79541015625
-16.806884765625 33.97119140625 38.9227294921875
-37.962646484375 72.83935546875 12.4359130859375
-3.387451171875 30.7357177734375 17.536376953125
-7.343994140625 -22.9031982421875 87.773681640625
-46.7412109375 79.647705078125 6.4063720703125
0.627197265625 -2.7100830078125 77.127685546875
-37.807373046875 -18.129150390625 93.4241943359375
-11.053955078125 -4.4365234375 84.3017578125
86.63525390625 87.10546875 7.3389892578125
76.03515625 -102.1903076171875 -16.305908203125
27.5380859375 98.107666015625 -31.3685302734375
39.73828125 17.3228759765625 52.0899658203125
-26.328369140625 -1.1802978515625 83.1717529296875
18.38818359375 -3.7880859375 76.246337890625
-82.504150390625 -17.7769775390625 -17.50146484375
-28.4736328125 1.8360595703125 80.945068359375
7.14892578125 89.8311767578125 -20.8382568359375
19.4755859375 40.3118896484375 15.733154296875
-11.109375 9.3553466796875 72.306396484375
-31.08203125 85.117431640625 10.2664794921875
16.72119140625 58.4444580078125 2.2022705078125
59.6318359375 42.5330810546875 25.0164794921875
55.027099609375 80.088623046875 -13.657958984375
26.084228515625 63.34423828125 6.2623291015625
75.48046875 20.51904296875 46.6351318359375
-5.695068359375 22.3134765625 51.1956787109375
45.773681640625 54.3369140625 13.57080078125
-3.224853515625 27.82421875 20.148681640625
48.898681640625 102.312744140625 -37.7283935546875
62.785400390625 2.7825927734375 66.5806884765625
-8.625 80.0313720703125 -4.5064697265625
9.79736328125 24.995361328125 23.13671875
-27.613037109375 23.4814453125 59.95556640625
20.257080078125 97.5799560546875 -30.005615234375
61.684326171875 29.6776123046875 39.0416259765625
-8.991943359375 17.8448486328125 61.51318359375
45.89599609375 11.0791015625 58.1324462890625
15.57763671875 75.10693359375 -5.28466796875
41.6455078125 78.338623046875 -11.369873046875
-7.374755859375 31.61669921875 39.3699951171875
29.22900390625 86.9862060546875 -20.1993408203125
21.830078125 25.600341796875 44.0318603515625
4.881591796875 29.2635498046875 43.17431640625
71.200439453125 94.8468017578125 -29.2633056640625
61.244873046875 23.668701171875 43.903564453125
25.1640625 0.7943115234375 68.3475341796875
66.2919921875 26.336181640625 42.3978271484375
56.236328125 8.9752197265625 60.27587890625
10.37939453125 22.4783935546875 30.466064453125
72.489501953125 34.4033203125 33.467529296875
13.900390625 28.390869140625 38.181884765625
-23.576171875 37.1368408203125 40.0009765625
59.753173828125 49.5216064453125 18.7197265625
-42.322509765625 5.1302490234375 84.5814208984375
55.15576171875 64.341064453125 2.2772216796875
12.359375 98.718017578125 -30.7423095703125
31.2021484375 2.4366455078125 68.158447265625
2.863525390625 92.6483154296875 -23.89404296875
-43.37890625 67.8275146484375 13.69921875
52.7939453125 92.6932373046875 -27.5430908203125
70.26416015625 79.1358642578125 -13.524658203125
20.26513671875 37.4288330078125 29.475830078125
2.6240234375 1.9146728515625 72.0885009765625
0.73681640625 26.2283935546875 22.7205810546875
50.263671875 26.2432861328125 42.3558349609375
75.83544921875 107.1878662109375 -42.8594970703125
66.21435546875 53.62548828125 13.059326171875
-25.262451171875 25.1217041015625 52.11376953125
70.39990234375 21.880126953125 46.3050537109375
66.518798828125 -84.295166015625 -52.7464599609375
65.732177734375 6.9368896484375 61.33740234375
59.070556640625 12.799560546875 55.349365234375
62.665771484375 12.1900634765625 55.723388671875
2.184326171875 24.70556640625 48.0953369140625
-7.909423828125 -17.0809326171875 84.39306640625
28.36279296875 21.2786865234375 48.844970703125
24.11669921875 78.4100341796875 -10.02880859375
41.1494140625 95.3453369140625 -29.217041015625
-14.651611328125 22.1021728515625 59.6492919921875
4.509033203125 28.589111328125 20.817626953125
-22.2783203125 13.001708984375 72.104736328125
-32.22119140625 -7.5970458984375 84.64013671875
-14.108154296875 -10.9942626953125 84.4478759765625
-0.80859375 44.7373046875 2.642822265625
-1.505859375 29.353271484375 42.85791015625
48.33740234375 77.5645751953125 -11.030029296875
-17.11572265625 -2.7806396484375 85.2327880859375
47.20849609375 51.137451171875 16.824462890625
-5.272216796875 -2.12158203125 78.9765625
90.6298828125 23.4986572265625 21.6939697265625
55.587890625 -46.745361328125 -27.235595703125
1.110595703125 21.884765625 51.1781005859375
-29.6044921875 34.8162841796875 41.86962890625
77.270263671875 86.926513671875 -21.8663330078125
19.378173828125 43.4725341796875 8.8790283203125
19.612548828125 14.8505859375 56.72607421875
-6.1962890625 75.0587158203125 -1.5091552734375
-0.522705078125 38.9578857421875 9.28125
27.720947265625 17.606201171875 52.6624755859375
18.898193359375 45.8651123046875 1.94482421875
37.482177734375 44.5426025390625 24.2515869140625
36.215087890625 88.905517578125 -22.55419921875
53.324951171875 40.7650146484375 27.627197265625
24.066162109375 100.260986328125 -33.4326171875
33.078369140625 87.2703857421875 -20.7823486328125
88.931640625 42.4990234375 2.4041748046875
35.67138671875 62.531982421875 5.9794921875
86.460693359375 37.6295166015625 8.599609375
21.55908203125 76.5772705078125 -8.434814453125
73.5439453125 30.58203125 37.1854248046875
33.48583984375 33.9893798828125 35.8218994140625
-17.272705078125 22.5987548828125 49.2283935546875
79.437744140625 89.5501708984375 -23.070068359375
61.419189453125 17.1436767578125 50.416015625
6.835693359375 10.395751953125 62.5572509765625
28.394775390625 91.371826171875 -24.5284423828125
92.314208984375 20.484619140625 13.97607421875
-23.527099609375 -15.6986083984375 85.2982177734375
19.16748046875 87.218505859375 -19.063720703125
12.528076171875 39.697265625 7.8740234375
-0.845703125 22.866943359375 26.653076171875
3.5712890625 -7.5709228515625 81.739501953125
-24.840087890625 34.3192138671875 41.88818359375
57.371337890625 94.2718505859375 -28.4400634765625
23.297607421875 43.3494873046875 26.2913818359375
73.6005859375 80.33935546875 -13.8153076171875
17.004638671875 24.9296875 23.1888427734375
72.527587890625 25.9078369140625 42.2486572265625
60.0048828125 82.2252197265625 -15.8580322265625
65.710693359375 96.3258056640625 -30.684326171875
4.49853515625 14.8035888671875 58.2799072265625
43.3388671875 69.1676025390625 -1.9361572265625
20.170654296875 81.4764404296875 -13.771728515625
69.083984375 9.1861572265625 59.4658203125
16.579833984375 22.1864013671875 49.7950439453125
73.02587890625 83.6761474609375 -18.1396484375
61.534912109375 61.7457275390625 6.1695556640625
88.368896484375 50.6058349609375 -4.97021484375
22.3154296875 33.8251953125 35.079833984375
-10.898193359375 4.755859375 77.0308837890625
-4.741943359375 87.43115234375 -15.935546875
53.750244140625 73.134765625 -6.6717529296875
21.123779296875 50.3997802734375 16.4267578125
21.795166015625 9.9727783203125 60.303466796875
-3.271728515625 5.2574462890625 70.3133544921875
45.874755859375 82.03466796875 -15.5118408203125
36.638427734375 0.795166015625 69.1287841796875
24.5302734375 -3.322265625 73.71875
35.161865234375 -86.7586669921875 2.177490234375
42.58349609375 81.1982421875 -14.755615234375
-12.64013671875 -17.7059326171875 84.387451171875
41.60888671875 63.85498046875 3.9959716796875
51.090576171875 42.6068115234375 25.62060546875
-29.921142578125 26.146728515625 56.06884765625
-8.90185546875 22.0347900390625 51.864990234375
57.07470703125 35.65234375 32.64404296875
2.822509765625 67.7882080078125 1.5133056640625
16.614990234375 10.75732421875 61.3900146484375
44.12939453125 89.0194091796875 -23.4681396484375
90.569580078125 78.5997314453125 9.3118896484375
-39.0947265625 66.6358642578125 14.430419921875
8.246826171875 50.11474609375 -2.20068359375
-31.883544921875 -20.41064453125 91.8082275390625
19.587646484375 49.914794921875 11.10400390625
-41.845458984375 77.991455078125 10.69091796875
39.56494140625 86.2406005859375 -20.2999267578125
18.447021484375 55.3994140625 3.4349365234375
28.595947265625 35.2314453125 35.42431640625
39.595947265625 8.4495849609375 61.56298828125
50.342041015625 73.0706787109375 -6.474853515625
6.353759765625 33.5643310546875 20.3692626953125
66.6103515625 84.0010986328125 -18.207763671875
7.462646484375 27.86376953125 44.8992919921875
-38.74560546875 -13.51904296875 91.346923828125
-14.308349609375 -14.6153564453125 84.0321044921875
23.005615234375 -15.8360595703125 76.491943359375
-21.53125 2.871826171875 82.6878662109375
-14.706787109375 8.2967529296875 76.2117919921875
31.559814453125 59.7332763671875 9.5596923828125
23.470947265625 28.8282470703125 40.0679931640625
13.51806640625 50.787109375 -3.642578125
3.250244140625 42.368408203125 5.0867919921875
9.85546875 24.44140625 48.6895751953125
93.847412109375 22.5205078125 23.314697265625
11.650390625 28.108154296875 43.4012451171875
57.1474609375 72.042236328125 -5.9232177734375
0.37451171875 -6.2432861328125 80.91455078125
30.20703125 46.1226806640625 22.96240234375
18.9189453125 3.7080078125 68.5709228515625
62.63818359375 31.85888671875 36.8709716796875
51.1806640625 -0.01416015625 69.3702392578125
17.987060546875 52.6065673828125 -0.654052734375
3.310546875 -76.968017578125 8.870849609375
74.53125 92.6556396484375 -26.2103271484375
18.63720703125 29.7630615234375 37.762939453125
31.8779296875 -105.4903564453125 -17.3321533203125
47.926513671875 45.4324951171875 22.5206298828125
51.115966796875 84.5635986328125 -18.103515625
92.2568359375 25.4951171875 46.0509033203125
32.4794921875 24.6488037109375 44.4375
8.302001953125 6.300048828125 66.7962646484375
65.104248046875 16.5 52.048828125
69.340087890625 107.2264404296875 -42.3856201171875
-13.573974609375 77.109375 1.6431884765625
72.235107421875 17.384033203125 51.91259765625
50.265380859375 34.3121337890625 34.3607177734375
39.723388671875 91.7811279296875 -25.831787109375
55.747802734375 85.918701171875 -20.3760986328125
10.2392578125 37.0562744140625 10.4703369140625
5.91455078125 98.1998291015625 -29.1888427734375
54.376953125 68.020751953125 -1.0859375
73.250732421875 -103.354248046875 -17.31640625
42.380126953125 59.0833740234375 8.3883056640625
16.791015625 32.711181640625 15.2406005859375
-28.927001953125 -4.4195556640625 83.5091552734375
-16.450439453125 18.28466796875 67.4298095703125
12.677001953125 80.430908203125 -11.4385986328125
-11.512939453125 21.3135986328125 57.694091796875
-26.96630859375 -20.8173828125 89.9434814453125
31.161376953125 4.5731201171875 65.4495849609375
-35.19970703125 -22.4661865234375 93.401123046875
32.704345703125 61.2183837890625 7.00390625
34.773681640625 30.464111328125 38.9683837890625
-21.382080078125 8.8321533203125 75.877197265625
65.41357421875 58.8929443359375 7.7943115234375
19.506103515625 38.779541015625 19.6219482421875
-51.4052734375 -32.8233642578125 -2.2054443359375
80.263671875 75.2413330078125 -8.6209716796875
69.166015625 4.4075927734375 63.9300537109375
68.22705078125 11.0616455078125 56.7313232421875
66.79833984375 32.69677734375 35.9542236328125
-7.384521484375 88.6746826171875 -14.0224609375
-14.485595703125 22.4237060546875 56.4412841796875
47.0390625 25.3494873046875 43.7529296875
-33.31591796875 89.4195556640625 10.1414794921875
66.4443359375 66.5513916015625 0.468017578125
-0.451416015625 31.015869140625 38.9337158203125
-13.956787109375 -5.091552734375 85.30810546875
68.790771484375 71.0325927734375 -4.0404052734375
71.335205078125 100.9267578125 -35.2833251953125
-4.41015625 50.5833740234375 -2.5814208984375
30.6318359375 77.55322265625 -9.574951171875
19.528564453125 44.75 12.6737060546875
-55.781494140625 11.2008056640625 35.353515625
49.84521484375 9.19189453125 60.083251953125
-14.415283203125 2.5057373046875 81.8834228515625
2.30908203125 79.34765625 -9.16796875
-21.6162109375 -21.647216796875 87.71044921875
-0.4853515625 89.84619140625 -20.0946044921875
-50.868408203125 75.2564697265625 11.7125244140625
5.578857421875 48.0975341796875 4.6202392578125
13.658203125 24.48193359375 24.2342529296875
-32.276123046875 2.955322265625 75.8131103515625
87.508544921875 -90.9815673828125 -53.2545166015625
59.638427734375 57.20947265625 10.1094970703125
-45.076904296875 66.557373046875 16.7044677734375
33.275634765625 65.0916748046875 3.143310546875
5.67626953125 29.8099365234375 23.4261474609375
-29.1630859375 -11.3485107421875 85.200927734375
37.854248046875 39.7735595703125 29.11572265625
-22.75830078125 -0.5013427734375 81.4461669921875
38.527587890625 66.6407470703125 1.0364990234375
28.291015625 93.798583984375 -26.95166015625
47.324951171875 18.1414794921875 51.4619140625
28.42041015625 55.7835693359375 13.37548828125
-28.000244140625 -22.654052734375 96.27783203125
-16.168701171875 14.1082763671875 71.44384765625
56.77978515625 28.9290771484375 38.57373046875
-2.57470703125 77.5450439453125 -6.4249267578125
85.0029296875 41.920166015625 4.41943359375
62.754638671875 104.2806396484375 -39.6651611328125
33.666015625 54.0955810546875 14.5982666015625
-41.441162109375 84.998291015625 7.149658203125
47.880615234375 38.38134765625 29.29296875
61.16259765625 64.7633056640625 1.6920166015625
50.321533203125 87.6221923828125 -22.1790771484375
-18.481689453125 20.1834716796875 66.093505859375
46.461669921875 -99.704833984375 -21.46533203125
26.488525390625 80.9241943359375 -13.126953125
-29.307861328125 20.475341796875 60.992431640625
93.679443359375 48.657470703125 26.8148193359375
55.7470703125 18.3287353515625 49.3511962890625
33.284423828125 18.4525146484375 50.7249755859375
56.626220703125 20.6011962890625 47.2435302734375
86.940185546875 26.572998046875 53.8345947265625
50.455078125 29.7584228515625 38.329833984375
-13.5322265625 32.512451171875 39.587646484375
-23.3564453125 28.852294921875 43.333740234375
-52.424560546875 72.0513916015625 34.39599609375
-3.801025390625 80.0045166015625 -8.59375
-25.84765625 22.4483642578125 62.2259521484375
61.572021484375 97.169677734375 -32.25244140625
-20.5234375 -24.721435546875 90.1851806640625
63.047607421875 100.5445556640625 -35.6107177734375
-3.84716796875 73.13330078125 -0.8994140625
6.1025390625 -5.064697265625 79.78662109375
-1.726318359375 -7.54541015625 82.7054443359375
31.252197265625 97.958251953125 -31.521728515625
-39.325927734375 81.004638671875 9.30078125
93.79150390625 40.3756103515625 33.8402099609375
23.033203125 15.2452392578125 55.48193359375
47.1865234375 20.3603515625 48.41552734375
66.358642578125 63.3564453125 3.760498046875
-33.676513671875 67.325927734375 14.824951171875
40.097900390625 1.1151123046875 69.4998779296875
-17.056884765625 6.58154296875 78.9017333984375
9.854736328125 -71.30224609375 -25.5469970703125
64.864501953125 24.0888671875 43.8651123046875
23.258544921875 95.9820556640625 -28.558349609375
13.973876953125 28.1192626953125 34.5123291015625
68.727783203125 40.700927734375 27.365478515625
19.5712890625 36.6676025390625 24.2022705078125
-26.5361328125 15.722900390625 67.226318359375
64.48193359375 86.0196533203125 -19.5589599609375
2.669677734375 -12.6185302734375 87.4664306640625
53.2744140625 52.109375 14.579833984375
-1.1474609375 82.986572265625 -12.63623046875
-2.864990234375 -12.9969482421875 85.18115234375
-6.69970703125 6.833251953125 70.4766845703125
-31.514892578125 7.8468017578125 71.1253662109375
19.2568359375 68.8594970703125 0.2960205078125
84.728271484375 93.2005615234375 7.6719970703125
92.64453125 33.6268310546875 11.871826171875
-28.262451171875 27.2843017578125 47.859130859375
71.900634765625 96.7960205078125 -31.466064453125
10.001708984375 3.085693359375 70.31982421875
13.848388671875 17.78955078125 54.7117919921875
43.3994140625 56.3541259765625 11.5439453125
54.33984375 59.26513671875 8.2847900390625
40.05712890625 4.24951171875 65.0201416015625
14.781494140625 47.2470703125 -0.6793212890625
26.340087890625 49.6494140625 20.1318359375
67.949462890625 36.7835693359375 31.8330078125
55.266845703125 25.7340087890625 41.9073486328125
62.77880859375 80.659912109375 -14.5882568359375
39.017822265625 58.8663330078125 9.010986328125
33.386962890625 48.3238525390625 20.7823486328125
80.138671875 70.3809814453125 -4.178955078125
-5.15185546875 94.3564453125 -22.7193603515625
-22.213623046875 1.7701416015625 79.2462158203125
48.7353515625 55.542724609375 12.4913330078125
20.572998046875 55.5225830078125 12.3994140625
2.11962890625 34.135009765625 13.616455078125
-13.834716796875 20.2847900390625 63.82470703125
42.9814453125 74.6427001953125 -7.1884765625
89.715087890625 -105.635009765625 -28.107421875
45.01171875 6.687744140625 62.5068359375
66.01904296875 48.08056640625 20.658447265625
18.83154296875 29.3349609375 23.9222412109375
78.281494140625 -100.197265625 -24.8826904296875
40.689697265625 51.0169677734375 17.3316650390625
13.0224609375 68.62548828125 0.83349609375
75.207275390625 71.8369140625 -5.0546875
48.868896484375 59.7164306640625 7.269775390625
-18.679443359375 -9.638427734375 85.1043701171875
86.52099609375 32.7872314453125 12.662841796875
56.9013671875 37.9713134765625 30.070068359375
-1.145751953125 15.26513671875 58.8687744140625
10.26708984375 96.337646484375 -28.0987548828125
8.993896484375 91.3114013671875 -22.755126953125
19.503662109375 91.4332275390625 -23.8214111328125
-25.790771484375 25.188232421875 57.9576416015625
-10.726318359375 75.6729736328125 -1.3743896484375
45.484130859375 84.0999755859375 -18.2744140625
29.5869140625 9.29443359375 60.3685302734375
-21.4326171875 6.65185546875 77.921875
76.576171875 93.375 -28.2647705078125
9.3642578125 -63.462158203125 11.1014404296875
-33.922119140625 82.2598876953125 8.029296875
-26.748291015625 4.7408447265625 77.9927978515625
39.31494140625 12.9678955078125 56.7967529296875
34.608154296875 94.1201171875 -28.1551513671875
13.517822265625 84.110595703125 -15.60546875
-25.678466796875 11.02294921875 71.8157958984375
-40.82568359375 7.7939453125 87.3802490234375
-12.20068359375 15.933349609375 66.7568359375
10.7685546875 20.7750244140625 51.57421875
40.103271484375 10.575927734375 59.079345703125
-46.80419921875 82.91552734375 7.236572265625
19.27685546875 32.658935546875 20.0096435546875
8.5263671875 28.75048828125 38.056396484375
-11.590576171875 23.3604736328125 47.3609619140625
35.575927734375 8.1514892578125 60.953125
45.91748046875 0.051025390625 70.0068359375
55.55224609375 7.0706787109375 62.42822265625
-9.544677734375 -9.653076171875 84.3779296875
53.915771484375 88.0067138671875 -22.69091796875
88.438720703125 41.1068115234375 4.95947265625
62.72705078125 74.0758056640625 -7.541748046875
39.326904296875 82.64013671875 -15.5718994140625
62.2626953125 78.5030517578125 -12.07080078125
55.691162109375 2.6871337890625 65.826904296875
-30.537109375 25.992919921875 49.2049560546875
-21.894775390625 16.00341796875 68.7862548828125
19.342529296875 15.7249755859375 -32.5638427734375
46.917236328125 33.539306640625 35.37646484375
38.462646484375 71.23388671875 -3.27783203125
62.81884765625 92.8779296875 -27.7935791015625
60.185302734375 3.89892578125 65.6092529296875
64.126220703125 14.3472900390625 53.7835693359375
14.98828125 91.2301025390625 -22.6427001953125
-6.415283203125 32.0479736328125 17.164794921875
12.423828125 43.07373046875 4.09716796875
75.0625 26.78076171875 40.68505859375
59.737548828125 69.1129150390625 -2.92431640625
32.292236328125 39.0631103515625 30.9208984375
-0.120849609375 30.8782958984375 17.8028564453125
45.82373046875 15.9375 53.4444580078125
52.789306640625 9.856689453125 59.07275390625
50.2412109375 20.90283203125 47.37060546875
1.83251953125 83.885498046875 -14.14404296875
-9.016845703125 24.819091796875 45.9703369140625
20.00439453125 15.9454345703125 -35.8804931640625
-17.402587890625 4.120849609375 80.9439697265625
26.09375 87.05029296875 -19.736572265625
-1.080322265625 12.4556884765625 61.49755859375
22.869873046875 52.591064453125 15.6090087890625
-10.3271484375 -1.2562255859375 82.425048828125
-9.1962890625 85.0743408203125 -13.024169921875
86.63134765625 25.496337890625 56.5281982421875
29.63916015625 38.5572509765625 32.16748046875
-26.51806640625 31.3101806640625 43.3955078125
76.0400390625 99.0799560546875 -34.1270751953125
-21.45703125 -6.61083984375 86.085205078125
-40.654052734375 68.454833984375 20.098388671875
-1.881103515625 8.857177734375 66.0146484375
43.679931640625 33.69580078125 35.3626708984375
40.209716796875 102.7130126953125 -37.07177734375
-17.9384765625 -19.4844970703125 85.0858154296875
47.816650390625 96.2017822265625 -30.82568359375
66.001220703125 104.4661865234375 -39.2366943359375
-23.838134765625 -12.7186279296875 85.666015625
2.957763671875 4.309814453125 69.651123046875
67.08984375 -88.4443359375 -52.7501220703125
16.329345703125 44.5943603515625 2.41015625
-35.11279296875 -17.1434326171875 92.1553955078125
21.501708984375 21.60009765625 48.5552978515625
37.086669921875 98.19287109375 -32.5836181640625
52.009765625 -75.9373779296875 -53.73193359375
8.001708984375 20.2017822265625 52.908447265625
53.343017578125 12.4091796875 55.911865234375
10.672607421875 45.4564208984375 2.716796875
17.4169921875 17.02490234375 55.25927734375
69.049072265625 49.43408203125 17.8824462890625
24.982666015625 45.528076171875 24.6136474609375
44.85107421875 66.9512939453125 0.3927001953125
35.385009765625 84.0970458984375 -17.92236328125
27.01123046875 12.35888671875 57.2508544921875
69.230224609375 73.2681884765625 -6.4769287109375
38.2880859375 42.6134033203125 26.392333984375
21.2158203125 93.0068359375 -25.657958984375
-2.374755859375 25.7330322265625 46.0732421875
73.750732421875 33.7423095703125 36.1187744140625
14.73828125 26.71875 44.899169921875
22.12255859375 0.053466796875 70.720458984375
51.85107421875 62.5255126953125 4.539794921875
-39.761962890625 55.99951171875 -26.6002197265625
35.5771484375 57.583984375 10.6455078125
21.91357421875 38.7479248046875 31.9561767578125
5.707275390625 68.8487548828125 0.9154052734375
63.337158203125 38.5484619140625 29.5323486328125
88.8974609375 82.4886474609375 10.6651611328125
1.67431640625 49.463623046875 -2.5355224609375
15.86572265625 13.1195068359375 59.4156494140625
-3.409423828125 84.8255615234375 -13.793212890625
15.631103515625 87.6019287109375 -19.29931640625
73.297119140625 75.16259765625 -8.4931640625
19.347900390625 52.71337890625 5.0091552734375
-20.151123046875 32.6241455078125 40.14892578125
37.959716796875 61.146728515625 6.9976806640625
19.412109375 47.6236572265625 17.9373779296875
20.55517578125 89.11181640625 -21.609130859375
-77.690673828125 -7.2999267578125 37.276611328125
49.568603515625 91.9068603515625 -26.412353515625
8.328125 94.981689453125 -26.137451171875
24.130615234375 73.8187255859375 -5.5587158203125
37.055419921875 -43.9049072265625 3.3692626953125
16.398193359375 83.2724609375 -15.3094482421875
75.0615234375 101.5286865234375 -35.7469482421875
68.72265625 102.9326171875 -37.4156494140625
78.349365234375 73.015625 -6.979248046875
-17.068603515625 24.59619140625 45.66650390625
1.38232421875 -77.17041015625 6.78857421875
42.489501953125 30.624267578125 38.6832275390625
5.003662109375 -9.4195556640625 83.5760498046875
-5.1904296875 90.2962646484375 -18.2750244140625
12.07080078125 70.79833984375 -0.9478759765625
6.987060546875 51.324951171875 -4.5302734375
-36.304931640625 53.8170166015625 -24.8941650390625
-7.82373046875 11.19287109375 66.9886474609375
52.52392578125 94.6641845703125 -29.9422607421875
41.322998046875 70.8497314453125 -3.4141845703125
75.430908203125 68.2598876953125 -1.5848388671875
88.219482421875 22.2086181640625 24.2154541015625
52.824462890625 98.4088134765625 -32.93212890625
-0.73095703125 80.788818359375 -10.6146240234375
66.84765625 81.4970703125 -15.5999755859375
8.60986328125 -72.95654296875 -23.3829345703125
-29.7685546875 87.6048583984375 10.9857177734375
75.533447265625 76.4229736328125 -9.6826171875
-25.7216796875 -9.9761962890625 87.087890625
83.70703125 99.8663330078125 6.54736328125
29.55810546875 50.6859130859375 18.46337890625
-13.387939453125 5.9661865234375 77.5999755859375
41.619873046875 23.9180908203125 44.52490234375
43.429443359375 36.61181640625 31.662841796875
20.92236328125 4.4158935546875 66.638671875
58.62060546875 90.4197998046875 -25.5357666015625
14.877197265625 3.828857421875 68.9857177734375
60.749267578125 85.8251953125 -19.763671875
-84.223876953125 -19.5560302734375 -16.1456298828125
-39.1806640625 4.6343994140625 86.47509765625
-52.451171875 -37.8302001953125 -4.5030517578125
8.43505859375 82.68017578125 -13.1971435546875
73.998779296875 108.97265625 -44.03271484375
71.297119140625 32.5218505859375 35.3883056640625
-28.291748046875 17.9163818359375 66.798828125
16.874755859375 14.8372802734375 57.3824462890625
44.749267578125 13.8253173828125 55.2850341796875
73.431396484375 105.1632080078125 -39.8116455078125
-27.339111328125 6.9327392578125 75.256103515625
51.636474609375 82.15185546875 -16.755859375
15.6923828125 63.9407958984375 3.1473388671875
-38.215087890625 30.339599609375 51.525146484375
45.64013671875 26.7596435546875 41.764404296875
37.956298828125 34.2794189453125 35.5496826171875
-7.97265625 93.447021484375 -18.594970703125
17.1943359375 72.787353515625 -3.298095703125
0.02001953125 -0.5284423828125 75.013916015625
66.69091796875 57.5323486328125 9.8870849609375
39.98681640625 27.7607421875 40.8416748046875
62.0517578125 50.17138671875 17.254150390625
12.482666015625 77.2164306640625 -7.7889404296875
58.758544921875 6.39111328125 62.9146728515625
50.66455078125 38.1248779296875 29.4617919921875
87.687744140625 78.0596923828125 13.1026611328125
66.4755859375 -100.6163330078125 -40.6409912109375
48.832763671875 57.5196533203125 9.1981201171875
13.81787109375 19.99365234375 52.3548583984375
16.01806640625 39.9908447265625 7.2513427734375
67.400634765625 75.3817138671875 -8.653076171875
45.693603515625 23.51025390625 45.3714599609375
41.406982421875 -1.289306640625 70.599853515625
36.3818359375 -2.60888671875 73.1998291015625
4.727783203125 90.624267578125 -22.2047119140625
28.767822265625 42.70654296875 27.2230224609375
19.36865234375 -63.7344970703125 29.7947998046875
9.560546875 -8.81494140625 82.69921875
31.54931640625 101.0377197265625 -35.1982421875
14.976318359375 94.6881103515625 -26.650634765625
33.2734375 20.6063232421875 48.4188232421875
6.13330078125 -1.3524169921875 75.280029296875
49.37548828125 64.197265625 3.2774658203125
-22.137451171875 11.202880859375 74.2257080078125
32.3232421875 13.028076171875 57.0804443359375
17.873291015625 28.3304443359375 18.7357177734375
-5.04296875 -6.130859375 82.4072265625
54.366455078125 56.4091796875 10.400146484375
63.270263671875 46.1279296875 21.452880859375
21.47265625 -61.809814453125 28.83935546875
55.741455078125 32.25927734375 36.280517578125
49.806640625 75.9105224609375 -9.3673095703125
12.6865234375 92.531982421875 -24.344970703125
-2.109130859375 18.37890625 55.77294921875
21.868408203125 80.267822265625 -11.94921875
42.740478515625 2.1044921875 66.96240234375
27.87255859375 27.1522216796875 42.2412109375
14.02587890625 59.4300537109375 -0.6182861328125
89.6591796875 31.9385986328125 14.4437255859375
75.99462890625 103.73486328125 -38.3609619140625
-9.09375 7.450439453125 72.1619873046875
-6.3525390625 -0.036376953125 77.4632568359375
14.0 6.833740234375 66.42724609375
-18.443359375 16.7838134765625 69.5693359375
67.035888671875 110.0611572265625 -0.790771484375
-78.068603515625 -2.5628662109375 31.837158203125
-23.480224609375 4.5853271484375 77.999755859375
63.89453125 28.3673095703125 40.2572021484375
-37.630859375 66.4925537109375 16.7537841796875
-42.970947265625 71.716796875 12.708740234375
17.8427734375 77.7393798828125 -9.2281494140625
38.15771484375 20.573974609375 49.5274658203125
57.127685546875 81.56201171875 -15.5889892578125
13.868408203125 34.005859375 14.0150146484375
5.3095703125 50.55615234375 1.43896484375
18.23974609375 93.9827880859375 -26.3734130859375
54.8193359375 -70.9215087890625 -57.657470703125
-16.148681640625 -44.3751220703125 -49.737060546875
1.180419921875 10.3375244140625 63.93212890625
57.6005859375 77.2210693359375 -10.14111328125
16.156005859375 16.655517578125 -36.631591796875
24.60546875 25.002685546875 44.5311279296875
56.92724609375 55.8267822265625 11.47119140625
-4.45263671875 35.0416259765625 12.523681640625
60.98193359375 53.0225830078125 14.713623046875
48.6953125 67.1021728515625 -0.369140625
13.36328125 -82.4100341796875 -52.626220703125
-19.5009765625 -42.3258056640625 61.448486328125
4.186279296875 32.1617431640625 16.7315673828125
-4.220458984375 42.5810546875 5.3173828125
9.0537109375 -76.1964111328125 -29.61083984375
69.36279296875 53.960693359375 13.3150634765625
61.237060546875 89.611083984375 -24.8079833984375
66.651123046875 -93.6444091796875 -50.13671875
-14.79931640625 29.7430419921875 40.9942626953125
3.775390625 22.0662841796875 50.667724609375
80.1513671875 78.608154296875 -12.6011962890625
23.267578125 48.9892578125 21.43017578125
74.988037109375 29.0263671875 39.0
75.9169921875 84.0997314453125 -18.8992919921875
-44.578125 84.4476318359375 7.447998046875
-46.634033203125 75.979736328125 11.120849609375
62.84033203125 -89.1304931640625 -54.2242431640625
23.27978515625 65.764404296875 3.89306640625
-23.163330078125 18.8240966796875 64.6346435546875
-13.67333984375 13.441162109375 70.6544189453125
11.42236328125 28.7071533203125 39.2066650390625
-28.475830078125 2.375244140625 78.300537109375
48.644775390625 16.2186279296875 52.812744140625
8.39697265625 75.2811279296875 -4.8707275390625
72.095703125 19.99560546875 47.4368896484375
-24.24169921875 -20.4617919921875 87.94189453125
-7.888916015625 -14.4095458984375 84.06982421875
17.085205078125 79.7059326171875 -11.1380615234375
58.60986328125 24.8759765625 42.836181640625
23.46142578125 3.5360107421875 66.5631103515625
52.43017578125 60.2041015625 6.650146484375
17.4150390625 41.872802734375 5.606689453125
15.235595703125 61.3226318359375 2.1395263671875
27.887451171875 47.458984375 21.9970703125
-20.22314453125 29.8187255859375 41.1307373046875
35.485595703125 80.648681640625 -13.665283203125
21.10302734375 41.5621337890625 25.6265869140625
60.859375 35.937744140625 33.0006103515625
34.622314453125 72.0628662109375 -4.0196533203125
74.9560546875 88.090576171875 -22.5323486328125
27.219482421875 -3.2579345703125 73.451416015625
19.45654296875 43.210693359375 14.8587646484375
-27.014404296875 13.91552734375 69.13623046875
90.15185546875 26.734130859375 49.1163330078125
68.499755859375 23.4212646484375 45.1126708984375
-12.730224609375 -21.894775390625 86.447265625
25.998046875 56.674560546875 12.693359375
19.277099609375 49.403076171875 7.57421875
74.583984375 96.9193115234375 -31.773193359375
2.158447265625 -11.1002197265625 85.0882568359375
88.493408203125 90.1065673828125 9.3040771484375
29.269775390625 23.066650390625 46.90625
-21.521240234375 24.044189453125 58.7598876953125
26.789794921875 19.02880859375 50.441650390625
21.151611328125 58.2381591796875 9.0391845703125
30.021484375 57.4700927734375 12.02587890625
19.35888671875 34.0885009765625 16.5103759765625
-35.742919921875 84.1544189453125 7.634521484375
53.1572265625 102.484130859375 -37.9649658203125
5.00390625 31.55859375 21.5474853515625
86.437255859375 95.786865234375 5.7276611328125
-23.333740234375 -2.189697265625 83.40771484375
95.446533203125 25.133056640625 42.4658203125
52.602294921875 18.4251708984375 49.3902587890625
0.330810546875 -14.7994384765625 87.629150390625
-2.39453125 33.6361083984375 14.9669189453125
66.927734375 19.826171875 48.690185546875
17.174560546875 29.1063232421875 39.869140625
27.26171875 37.078857421875 32.5577392578125
46.270751953125 -102.4239501953125 -17.7523193359375
11.074951171875 88.4752197265625 -20.0274658203125
18.73779296875 7.0933837890625 64.986083984375
12.79443359375 -4.885986328125 78.734375
39.457275390625 49.06005859375 19.75634765625
14.573974609375 -2.849609375 75.578369140625
-3.624755859375 23.0897216796875 49.7567138671875
75.28466796875 -99.95556640625 -26.347412109375
7.03369140625 76.677001953125 -6.7703857421875
-17.14990234375 28.5811767578125 41.4705810546875
35.710693359375 73.6519775390625 -6.0853271484375
14.051025390625 -85.8499755859375 -51.927490234375
-57.818359375 10.1749267578125 36.6707763671875
56.756103515625 0.0284423828125 68.1783447265625
47.41357421875 30.2691650390625 37.9595947265625
67.746337890625 61.7796630859375 5.34423828125
-7.6630859375 13.247314453125 64.892578125
46.541259765625 61.756103515625 5.6419677734375
57.296142578125 101.1151123046875 -36.022705078125
19.3291015625 32.3626708984375 25.56982421875
71.744384765625 24.1168212890625 44.03076171875
34.802734375 37.0009765625 32.8251953125
2.185546875 6.1192626953125 67.906982421875
41.44677734375 13.99560546875 55.4141845703125
-81.73046875 -3.3612060546875 29.1041259765625
19.654052734375 99.343017578125 -32.4923095703125
88.50634765625 26.352783203125 58.60693359375
38.36962890625 93.2789306640625 -27.6644287109375
50.882080078125 23.9368896484375 43.8804931640625
-4.12060546875 29.59228515625 41.172119140625
63.672119140625 69.0606689453125 -2.944580078125
2.692626953125 16.5364990234375 56.88525390625
18.56591796875 26.7862548828125 24.5218505859375
86.113037109375 77.6099853515625 16.9122314453125
51.368408203125 54.281494140625 13.343994140625
-2.03173828125 94.45458984375 -24.4091796875
19.993896484375 1.584716796875 69.9906005859375
-0.910400390625 -10.44677734375 84.8780517578125
79.476318359375 -100.84375 -22.55224609375
-3.5322265625 12.0439453125 62.794189453125
4.65771484375 87.2550048828125 -18.112060546875
-3.11865234375 38.726806640625 9.1737060546875
21.209716796875 30.581298828125 38.8486328125
19.525634765625 45.28515625 20.27392578125
76.4951171875 -74.9600830078125 -54.31005859375
28.530517578125 84.351318359375 -17.1910400390625
19.4228515625 18.836181640625 52.8646240234375
11.156494140625 74.090576171875 -3.787109375
3.34765625 18.089599609375 54.900146484375
30.327392578125 71.63916015625 -3.6763916015625
48.348876953125 69.7254638671875 -2.9373779296875
55.928466796875 50.310546875 16.499755859375
28.355712890625 64.7767333984375 3.755859375
0.56787109375 69.059814453125 1.64111328125
33.75341796875 76.93310546875 -9.3719482421875
-32.048828125 -21.8994140625 94.129638671875
24.503662109375 83.6763916015625 -15.7750244140625
8.84326171875 8.496337890625 64.6651611328125
-9.84912109375 32.350341796875 39.585205078125
62.9189453125 7.793212890625 60.772216796875
3.70703125 52.435791015625 -5.41845703125
10.110595703125 31.774169921875 16.7978515625
-8.85693359375 -4.2623291015625 82.94677734375
2.787353515625 29.9940185546875 37.8734130859375
-29.92822265625 9.8106689453125 72.142578125
22.3291015625 68.971435546875 -0.1854248046875
12.3759765625 -1.3067626953125 74.4193115234375
72.394287109375 67.3056640625 -1.2750244140625
70.624267578125 69.3935546875 -3.0126953125
68.378662109375 110.9912109375 -4.43603515625
44.271484375 20.183349609375 49.100341796875
1.073974609375 91.6773681640625 -22.3109130859375
32.960205078125 27.9429931640625 40.9957275390625
32.075439453125 -1.5947265625 71.9671630859375
4.03125 13.0665283203125 60.117919921875
-35.5712890625 33.5914306640625 46.415771484375
-12.717041015625 3.142333984375 79.994873046875
62.802734375 63.5546875 3.74609375
26.834716796875 69.7879638671875 -1.359375
29.034423828125 -9.44384765625 72.8255615234375
62.64794921875 54.4490966796875 13.30078125
9.080322265625 40.9447021484375 6.307861328125
-3.05859375 46.97314453125 0.4375
5.463134765625 0.34619140625 73.4822998046875
31.4169921875 -6.3153076171875 74.364013671875
-12.64111328125 25.4490966796875 44.7744140625
-16.5439453125 10.5455322265625 74.5191650390625
59.6103515625 104.6009521484375 -40.0164794921875
63.515625 42.6983642578125 25.7548828125
-14.520263671875 19.2796630859375 66.078369140625
55.3583984375 84.102783203125 -18.6185302734375
36.033935546875 100.01416015625 -34.0296630859375
-25.264404296875 8.4249267578125 74.9561767578125
10.649169921875 62.0194091796875 -0.19873046875
49.789306640625 6.6417236328125 63.0386962890625
0.865966796875 29.3167724609375 43.7823486328125
-9.078369140625 -0.231689453125 79.9495849609375
19.130615234375 31.9129638671875 14.63623046875
-33.787109375 -20.98779296875 95.749267578125
91.44775390625 20.795654296875 26.8958740234375
12.037109375 47.3480224609375 0.2076416015625
70.51025390625 77.232177734375 -11.2049560546875
9.71875 1.1917724609375 71.987548828125
48.343505859375 10.72607421875 58.7025146484375
-14.6650390625 22.4620361328125 51.894287109375
49.217041015625 85.451416015625 -20.2872314453125
41.269287109375 47.0814208984375 21.1011962890625
17.978515625 96.530517578125 -29.64111328125
-33.5634765625 28.854736328125 49.8277587890625
16.06298828125 27.4942626953125 20.84375
38.98388671875 62.840087890625 5.4215087890625
5.091552734375 -3.0771484375 76.8878173828125
57.607177734375 14.328369140625 53.9697265625
-33.023681640625 23.9232177734375 60.2723388671875
77.02294921875 81.316162109375 -14.6085205078125
18.304443359375 31.5072021484375 31.818359375
-32.903564453125 -22.8280029296875 98.4200439453125
-2.317138671875 -15.6502685546875 85.7059326171875
52.385009765625 1.3643798828125 67.6417236328125
-6.06982421875 80.7198486328125 -7.7705078125
47.23974609375 75.9891357421875 -9.4119873046875
-0.814208984375 6.75439453125 67.55322265625
7.571044921875 16.248046875 57.115966796875
31.767822265625 52.8287353515625 16.6063232421875
-0.329345703125 71.1534423828125 -0.2218017578125
35.67333984375 47.5701904296875 21.4908447265625
-27.4833984375 -6.78125 87.2017822265625
15.69091796875 53.7506103515625 -3.519287109375
51.82763671875 80.3096923828125 -14.329345703125
-29.66650390625 24.214599609375 58.154296875
34.976806640625 -58.991455078125 -26.5267333984375
-0.61376953125 87.0653076171875 -17.1529541015625
19.663330078125 49.447509765625 14.0042724609375
-25.62548828125 -22.505126953125 91.9635009765625
4.095458984375 9.21142578125 64.6103515625
67.013427734375 55.453125 11.2406005859375
37.017333984375 68.879638671875 -0.8836669921875
88.193115234375 84.4423828125 8.5445556640625
66.206298828125 91.7100830078125 -26.542236328125
-40.715087890625 73.763671875 12.0928955078125
9.890380859375 13.4710693359375 59.7149658203125
25.29931640625 22.715087890625 47.4566650390625
-4.944091796875 76.6004638671875 -4.18212890625
80.2646484375 83.0606689453125 -15.964111328125
34.249267578125 -55.4345703125 -55.8455810546875
26.478759765625 100.4248046875 -34.0208740234375
42.00732421875 22.5125732421875 46.9259033203125
65.096435546875 71.3511962890625 -4.855224609375
34.4755859375 10.899169921875 59.3673095703125
44.600830078125 90.7532958984375 -25.3037109375
64.8623046875 11.4820556640625 56.646240234375
8.49072265625 32.4666748046875 19.745849609375
-24.413818359375 20.5364990234375 62.8951416015625
47.916015625 35.2008056640625 33.829345703125
17.549072265625 38.41943359375 8.455078125
30.092529296875 24.947998046875 45.0341796875
54.184326171875 44.661865234375 23.013427734375
-26.099365234375 39.031982421875 40.54833984375
56.473876953125 12.3355712890625 55.8486328125
30.61279296875 17.416259765625 52.7547607421875
32.668701171875 67.9544677734375 -0.2030029296875
46.644287109375 37.006591796875 31.0244140625
45.003173828125 47.990478515625 19.6339111328125
-30.11279296875 24.548095703125 54.19775390625
-19.619873046875 22.675537109375 53.8388671875
21.585693359375 -2.0947265625 72.805908203125
59.401123046875 21.9495849609375 46.171875
-51.97265625 10.73681640625 95.1123046875
52.349609375 36.4083251953125 32.1241455078125
-11.2734375 2.925048828125 -31.0762939453125
-17.428466796875 -21.529296875 86.366943359375
72.491943359375 82.109619140625 -16.319580078125
8.129638671875 17.887451171875 55.21142578125
12.202880859375 23.752685546875 48.4478759765625
58.234619140625 44.6248779296875 23.23193359375
59.46435546875 39.0191650390625 29.454345703125
-15.27734375 0.533935546875 83.845458984375
70.77001953125 86.333740234375 -20.919189453125
-78.181884765625 16.73193359375 49.5113525390625
-80.697509765625 -4.81005859375 32.986572265625
7.82568359375 26.43896484375 22.9599609375
13.177734375 28.1942138671875 20.3251953125
6.74169921875 29.539794921875 40.3201904296875
60.63330078125 28.1373291015625 40.6239013671875
15.177978515625 35.9884033203125 12.4254150390625
20.194091796875 52.8489990234375 11.3140869140625
3.979736328125 30.064453125 40.61279296875
-1.733642578125 48.9981689453125 -1.6197509765625
59.721435546875 101.0606689453125 -36.2645263671875
2.85546875 22.5577392578125 26.5772705078125
31.931884765625 -11.7493896484375 73.24755859375
62.3583984375 36.9150390625 31.0531005859375
29.430419921875 15.9144287109375 54.4599609375
-21.744873046875 20.3961181640625 66.0433349609375
11.60205078125 26.4984130859375 22.09619140625
94.579833984375 26.249755859375 47.4405517578125
57.653076171875 53.907958984375 13.1822509765625
34.610107421875 4.8985595703125 64.9794921875
22.31982421875 49.8907470703125 19.38623046875
-81.22021484375 -32.8359375 -2.9447021484375
13.466064453125 2.4857177734375 70.429931640625
71.1328125 108.5133056640625 -43.3907470703125
10.974609375 85.121826171875 -16.40380859375
54.152587890625 104.760498046875 -40.230224609375
62.38916015625 18.766845703125 48.904541015625
36.685302734375 26.2996826171875 42.4932861328125
19.115966796875 73.5565185546875 -4.55322265625
43.26171875 62.6085205078125 5.2496337890625
55.13134765625 93.359375 -28.453369140625
-30.86767578125 5.0482177734375 74.583740234375
12.276611328125 22.0318603515625 26.1356201171875
4.12255859375 36.03173828125 12.1903076171875
-8.761962890625 73.7005615234375 1.15771484375
19.447265625 47.773193359375 12.275634765625
-27.855712890625 33.156005859375 42.5943603515625
34.16455078125 91.763916015625 -25.5877685546875
32.090087890625 45.2943115234375 24.2264404296875
-22.5380859375 -19.246337890625 86.7392578125
-10.337890625 27.703857421875 41.9210205078125
-78.3515625 -4.0477294921875 36.14892578125
50.53369140625 12.66552734375 55.8990478515625
4.874267578125 -78.2281494140625 10.2041015625
3.76806640625 72.6219482421875 -2.4041748046875
29.435546875 -66.164306640625 -17.214111328125
6.499755859375 79.570556640625 -9.4317626953125
-12.3193359375 0.03076171875 82.8477783203125
-15.007568359375 22.68896484375 48.4130859375
62.52978515625 -108.29052734375 -32.7120361328125
49.747314453125 4.025634765625 65.078857421875
72.067626953125 15.427490234375 53.3575439453125
17.71044921875 0.58935546875 71.9423828125
88.379638671875 37.9300537109375 7.1929931640625
-19.488037109375 0.4674072265625 83.7359619140625
-8.10302734375 27.2777099609375 43.244873046875
34.462646484375 -60.1708984375 7.79833984375
-4.19873046875 19.8404541015625 55.265869140625
43.9462890625 -1.1561279296875 70.8404541015625
16.012939453125 -66.0628662109375 -4.2156982421875
66.55859375 5.0723876953125 63.65673828125
-9.32958984375 -22.2198486328125 86.6407470703125
57.368896484375 61.2694091796875 4.8892822265625
76.8349609375 92.042236328125 -26.2032470703125
46.418701171875 52.4940185546875 14.9375
51.36962890625 31.5040283203125 36.854248046875
19.718017578125 62.0692138671875 6.191650390625
27.986083984375 -77.0360107421875 -27.255859375
36.812744140625 13.33154296875 56.21435546875
77.63818359375 67.95068359375 -0.7452392578125
38.580322265625 89.10986328125 -22.7398681640625
68.135009765625 79.9605712890625 -14.315185546875
34.7431640625 44.1536865234375 25.1070556640625
89.3125 26.54541015625 53.639404296875
-28.716796875 -5.1478271484375 85.9891357421875
18.715576171875 83.115478515625 -14.6964111328125
57.67626953125 11.1546630859375 57.904296875
-1.778564453125 -3.7283935546875 78.69189453125
68.924560546875 90.68603515625 -25.912353515625
9.197021484375 24.365478515625 32.8260498046875
36.386474609375 -60.9681396484375 5.6446533203125
-5.2421875 -4.3223876953125 80.88671875
0.803466796875 43.7105712890625 4.04541015625
-57.954345703125 13.0836181640625 35.270263671875
70.592529296875 109.5819091796875 -6.356689453125
69.268798828125 88.2088623046875 -22.0736083984375
-20.45751953125 -4.1951904296875 85.6524658203125
9.78125 53.46142578125 -6.97900390625
17.50244140625 24.5341796875 25.495361328125
-31.952392578125 84.0137939453125 8.36376953125
19.1689453125 46.4693603515625 6.34228515625
66.3505859375 35.2640380859375 32.775634765625
40.596923828125 72.738525390625 -5.679931640625
59.64306640625 94.320556640625 -29.4769287109375
-0.5283203125 96.8978271484375 -27.8072509765625
88.353515625 35.9979248046875 10.209228515625
1.020263671875 20.3258056640625 52.9501953125
3.562744140625 94.247314453125 -25.485107421875
85.925048828125 75.1883544921875 20.4671630859375
23.84228515625 89.5562744140625 -21.9765625
85.9521484375 103.470947265625 2.989990234375
7.322998046875 34.5169677734375 13.7481689453125
35.36279296875 -86.8885498046875 -0.1641845703125
2.236572265625 29.19482421875 20.9014892578125
-50.538330078125 4.4456787109375 41.6260986328125
30.5126953125 -14.621826171875 74.0389404296875
36.28759765625 54.0806884765625 14.5728759765625
7.277587890625 26.4056396484375 46.73486328125
-19.942626953125 -16.6646728515625 84.2890625
14.51171875 26.883056640625 32.5875244140625
25.359619140625 68.00390625 0.7945556640625
65.422119140625 88.2401123046875 -22.1893310546875
-36.13720703125 31.240966796875 48.228515625
38.13818359375 56.49951171875 11.634765625
54.70458984375 70.384765625 -3.9185791015625
67.833251953125 95.43115234375 -30.2451171875
16.914794921875 25.6407470703125 45.488525390625
31.095703125 6.1702880859375 62.539306640625
34.978271484375 -3.844482421875 75.107421875
8.407958984375 -1.867919921875 75.4654541015625
66.6572265625 8.5533447265625 59.426513671875
19.49365234375 35.2291259765625 18.546142578125
55.30078125 39.68408203125 28.2476806640625
11.568359375 34.1455078125 14.396240234375
63.18505859375 -110.027099609375 -29.85107421875
-22.6728515625 7.1796875 74.8529052734375
26.685791015625 7.868896484375 61.9375
-22.07373046875 -44.2288818359375 61.808349609375
7.856201171875 37.785888671875 9.72265625
49.6689453125 99.18896484375 -34.00830078125
60.136962890625 74.8258056640625 -8.20556640625
14.298583984375 89.6527099609375 -21.0731201171875
52.874755859375 22.9947509765625 45.764892578125
70.00732421875 92.8143310546875 -27.76708984375
-27.947265625 -9.671630859375 87.69775390625
-0.756103515625 76.171630859375 -5.956787109375
43.317138671875 43.783935546875 24.0849609375
89.12841796875 -102.1600341796875 -45.381591796875
16.887451171875 76.5091552734375 -7.508056640625
65.098876953125 48.3759765625 18.550048828125
46.09619140625 93.5772705078125 -28.4344482421875
-35.4697265625 70.3076171875 12.8931884765625
-17.03125 26.7864990234375 43.1470947265625
40.87744140625 87.62158203125 -21.6142578125
-5.72216796875 23.404052734375 48.8316650390625
7.11669921875 -11.3463134765625 85.97607421875
14.734375 -0.3192138671875 73.3289794921875
9.424560546875 -4.4080810546875 78.58642578125
55.128662109375 75.4368896484375 -9.4354248046875
-43.225830078125 65.8958740234375 15.4940185546875
-19.177734375 -31.8623046875 -12.4244384765625
34.536865234375 40.5296630859375 28.8260498046875
1.993896484375 31.524169921875 16.4031982421875
53.653564453125 5.803955078125 62.7587890625
47.7822265625 3.9727783203125 66.363525390625
51.824951171875 66.330810546875 -0.315673828125
-27.43310546875 -18.263916015625 88.3414306640625
-30.02978515625 28.32373046875 45.56884765625
12.71240234375 9.112548828125 63.293701171875
57.058349609375 41.5897216796875 26.5130615234375
-5.28173828125 -22.0753173828125 87.1802978515625
40.578857421875 99.9688720703125 -34.3819580078125
-37.857421875 54.674072265625 -27.3824462890625
10.172607421875 48.786865234375 0.315673828125
-16.7373046875 22.404296875 60.5635986328125
-23.72607421875 24.3720703125 57.3677978515625
34.5791015625 49.817626953125 19.083740234375
3.17041015625 95.8302001953125 -27.2354736328125
-4.1494140625 -18.8255615234375 86.156982421875
9.02490234375 77.4583740234375 -7.59765625
