-16.770263671875 -11.033447265625 8.59716796875
18.396484375 20.007080078125 15.781005859375
9.002685546875 24.78857421875 -2.7353515625
-53.61376953125 -7.368408203125 -4.6231689453125
44.26416015625 26.49658203125 17.2962646484375
-33.478759765625 -34.559814453125 -10.369873046875
56.486572265625 11.0439453125 25.53466796875
47.970947265625 17.951171875 14.5567626953125
-23.66357421875 36.694580078125 7.1422119140625
-15.447509765625 33.736083984375 5.451416015625
-7.71435546875 -31.221435546875 -22.0111083984375
-6.3984375 1.5703125 15.0562744140625
-43.863037109375 32.85888671875 8.8052978515625
26.341796875 -20.476318359375 -3.0416259765625
45.845458984375 20.85205078125 -7.630126953125
-7.883056640625 0.3955078125 -10.1312255859375
47.7802734375 -22.4990234375 -21.03173828125
2.527587890625 30.5185546875 1.9202880859375
26.89501953125 -9.044189453125 2.0601806640625
40.37841796875 -30.88232421875 -15.0980224609375
-6.2978515625 -4.60546875 -12.501708984375
-32.953125 36.581298828125 13.0750732421875
-5.391845703125 32.8310546875 4.6536865234375
35.059326171875 -13.594482421875 -0.264404296875
39.25927734375 14.39794921875 12.08349609375
18.939697265625 -34.135986328125 -7.6983642578125
63.994873046875 -4.39501953125 31.2218017578125
23.858642578125 0.311767578125 7.5849609375
11.371826171875 -8.456298828125 4.5706787109375
-20.0703125 -28.90234375 0.2349853515625
63.8330078125 -16.77880859375 -18.1221923828125
55.823974609375 -25.153076171875 -12.6966552734375
-24.1025390625 -25.17041015625 -16.6595458984375
61.579833984375 -21.27294921875 -4.519775390625
45.8466796875 -27.00830078125 -16.91455078125
-15.260498046875 -3.072509765625 -5.4744873046875
-1.798828125 -23.910888671875 4.3662109375
-60.523193359375 34.903564453125 12.3892822265625
41.50048828125 -30.989501953125 -8.15283203125
-50.23583984375 37.43701171875 14.9144287109375
-42.55517578125 -12.857177734375 -3.246826171875
-0.10693359375 24.787353515625 -2.781494140625
54.6669921875 -23.125 -5.8892822265625
32.04443359375 -35.577880859375 -10.33935546875
-32.150146484375 -20.49072265625 10.7220458984375
-23.40185546875 35.646484375 12.45361328125
6.071044921875 -34.108642578125 -5.380859375
21.9365234375 27.00244140625 19.6859130859375
-44.65673828125 36.471435546875 12.716552734375
28.00439453125 20.080322265625 -8.80029296875
64.374755859375 -20.0078125 -10.32861328125
43.84765625 -21.32470703125 -4.9676513671875
59.96044921875 -21.818603515625 -22.7254638671875
52.371337890625 -24.2646484375 -23.03466796875
15.69384765625 25.210205078125 -2.2100830078125
38.45556640625 9.530029296875 -13.1168212890625
-2.22021484375 -28.400390625 -2.25048828125
-26.460205078125 28.005615234375 0.703857421875
46.1083984375 -6.46728515625 2.55322265625
-27.244384765625 31.3603515625 5.772705078125
65.343994140625 1.92236328125 29.4481201171875
-6.472412109375 -0.864990234375 4.0543212890625
-14.330078125 33.97998046875 12.304931640625
22.13671875 13.904052734375 -7.46044921875
-17.495361328125 21.354248046875 -1.40478515625
12.093017578125 28.07861328125 20.1566162109375
-0.5927734375 0.78173828125 5.0546875
-50.40478515625 -20.19970703125 -6.2904052734375
-27.297119140625 -20.830078125 -14.3270263671875
62.009521484375 -29.935302734375 -27.1925048828125
19.0458984375 -34.094970703125 -26.7957763671875
-51.144287109375 -13.671142578125 -6.7059326171875
35.654541015625 -23.859375 -4.4296875
-4.24658203125 28.043212890625 22.544189453125
29.1943359375 20.605224609375 14.7818603515625
-3.66552734375 -1.81884765625 11.4521484375
-9.295654296875 -10.090087890625 -7.30419921875
-16.30078125 -22.466796875 7.0950927734375
35.228759765625 22.897705078125 -3.1693115234375
-61.033935546875 -5.3955078125 4.8365478515625
-35.389892578125 -17.1640625 -10.28125
30.8154296875 -2.963623046875 5.2547607421875
18.97412109375 26.97900390625 1.2197265625
-6.724853515625 33.038818359375 10.4560546875
-14.410400390625 -14.84619140625 6.3387451171875
47.53369140625 -32.847412109375 -26.3017578125
-0.037109375 -17.6533203125 -4.30859375
45.975341796875 -0.84326171875 0.480712890625
-50.3486328125 -25.102783203125 -13.210205078125
-11.2939453125 -1.53271484375 5.082275390625
25.0703125 24.0849609375 -5.6002197265625
-7.522705078125 19.247314453125 -4.126953125
17.59228515625 -14.849609375 1.5634765625
59.90869140625 3.66845703125 30.0
5.679443359375 -7.255126953125 3.13037109375
-1.69091796875 -34.840576171875 -5.779296875
43.507080078125 -27.649169921875 -24.62890625
-42.629638671875 -23.732177734375 -11.1160888671875
-16.927734375 -31.318359375 -20.8167724609375
51.60107421875 -14.737060546875 -1.5125732421875
0.609375 16.115478515625 -4.3826904296875
2.276123046875 -31.226318359375 -22.556396484375
27.45703125 -30.620849609375 -19.2564697265625
-41.051513671875 -28.1474609375 -15.674072265625
13.68212890625 26.473876953125 15.5572509765625
46.138671875 -28.715576171875 -8.4150390625
9.206787109375 18.811767578125 -4.6910400390625
-10.139404296875 -31.540771484375 -2.96728515625
-10.0859375 -2.774658203125 21.9683837890625
-13.05615234375 1.780029296875 -3.533935546875
-44.1669921875 26.57080078125 8.437255859375
21.656005859375 -8.348876953125 4.1456298828125
-3.5380859375 -10.2236328125 -6.043701171875
29.7138671875 -29.831298828125 -23.3914794921875
-57.708984375 -9.2646484375 -0.6781005859375
-16.428466796875 -8.127197265625 14.5325927734375
36.51611328125 19.255615234375 14.246826171875
-34.460205078125 -27.199462890625 -18.74609375
2.3193359375 2.847412109375 12.536865234375
12.554443359375 -32.706298828125 -6.9814453125
22.734619140625 23.384521484375 16.7791748046875
9.3115234375 -31.433349609375 -22.950439453125
5.625244140625 -1.2724609375 11.3507080078125
45.2607421875 21.70703125 15.3314208984375
-53.781005859375 34.67041015625 11.77294921875
18.98779296875 22.19921875 -6.1964111328125
-19.807861328125 34.894287109375 4.2828369140625
38.852783203125 22.903076171875 15.950439453125
0.044677734375 34.5078125 4.93359375
6.63916015625 10.7294921875 -1.078857421875
-18.882080078125 -14.4599609375 11.5533447265625
-23.684814453125 -22.7138671875 -1.71044921875
16.869873046875 2.899169921875 9.3939208984375
-5.8271484375 22.708740234375 -1.6617431640625
30.212646484375 -28.771240234375 -6.1934814453125
20.984619140625 -30.56591796875 -5.704833984375
-47.738525390625 30.44140625 8.792236328125
-0.622802734375 -4.02587890625 -5.2529296875
6.688720703125 -26.75830078125 -3.211669921875
8.1435546875 -16.097900390625 1.3221435546875
37.87548828125 -5.931640625 3.1591796875
-40.694091796875 -17.0595703125 12.469482421875
-49.43798828125 -7.044677734375 1.00146484375
14.087890625 -12.056884765625 1.9117431640625
-22.114990234375 -30.754150390625 -19.2318115234375
-56.662353515625 -22.129638671875 -6.642333984375
5.1845703125 26.14111328125 23.4473876953125
49.86083984375 -27.587158203125 -11.2691650390625
-13.998779296875 23.34130859375 0.810791015625
-28.93359375 -16.995849609375 -6.2645263671875
18.89599609375 -25.52001953125 -4.2156982421875
-43.47314453125 -16.2587890625 -11.3411865234375
-17.02978515625 -21.465087890625 15.83935546875
-3.357666015625 -30.409423828125 -21.8585205078125
-18.0234375 30.31494140625 1.6595458984375
36.33154296875 -27.616455078125 -6.684326171875
-39.891357421875 -9.7587890625 -9.872802734375
25.118408203125 25.7744140625 -1.5614013671875
-51.8955078125 29.3681640625 9.626708984375
-45.9521484375 -12.875244140625 -6.0003662109375
-19.710693359375 -24.088623046875 -14.8603515625
30.8232421875 -10.928466796875 1.843505859375
-34.008544921875 34.519287109375 9.1318359375
-36.637451171875 -19.954833984375 -15.0743408203125
14.99853515625 -37.294677734375 -8.483154296875
62.739501953125 -21.687744140625 20.551025390625
17.614013671875 -35.252197265625 -14.9833984375
-21.742919921875 27.844970703125 0.9461669921875
69.23046875 9.9423828125 27.758056640625
66.2490234375 5.963623046875 31.1427001953125
38.584228515625 -20.07421875 -3.57763671875
-59.648193359375 28.05615234375 9.2255859375
-36.061767578125 25.79638671875 6.2318115234375
12.973876953125 -20.3671875 -0.847900390625
12.7099609375 16.409912109375 -4.585693359375
36.2001953125 -33.722412109375 -27.14599609375
5.56396484375 -1.64453125 3.88818359375
30.22412109375 14.608642578125 -11.2178955078125
-29.890869140625 -27.012939453125 -16.555419921875
10.103515625 -12.4794921875 3.173095703125
52.537353515625 -38.08544921875 -20.6627197265625
23.328369140625 -17.498779296875 -0.11181640625
10.410888671875 27.746826171875 -0.141357421875
43.107421875 16.01904296875 12.090576171875
12.996826171875 -3.552001953125 6.0927734375
-3.805419921875 -18.164306640625 -0.165771484375
-9.73046875 -21.578857421875 1.941650390625
3.156005859375 28.1787109375 -1.89453125
53.68701171875 -36.61328125 -24.78271484375
-7.69873046875 29.911376953125 0.728759765625
-10.531982421875 33.24267578125 4.7664794921875
-31.449951171875 -14.516357421875 -9.0921630859375
7.935302734375 2.388671875 3.529541015625
36.25634765625 -9.8623046875 0.89892578125
30.58935546875 -19.000732421875 -2.20068359375
19.304443359375 -4.850830078125 5.435546875
55.4580078125 -26.02392578125 -8.6337890625
59.795654296875 -23.18603515625 -12.4459228515625
22.2998046875 -36.317138671875 -8.302001953125
67.054443359375 14.239990234375 33.483154296875
-59.980224609375 -16.3505859375 -6.2635498046875
-13.0361328125 36.30859375 8.43505859375
44.777099609375 -25.48388671875 -20.77099609375
-30.776123046875 -31.750732421875 -14.3907470703125
-45.36083984375 -7.9833984375 -3.879150390625
-65.47216796875 -5.915283203125 2.2166748046875
62.821044921875 -28.451171875 15.45263671875
-17.2080078125 -22.161865234375 11.0927734375
31.37548828125 25.418701171875 17.7342529296875
45.306396484375 -24.74560546875 -6.3836669921875
68.814453125 2.150390625 25.384765625
28.483642578125 -5.888916015625 3.9224853515625
-20.51806640625 22.03759765625 2.3350830078125
-27.669921875 24.411376953125 2.0257568359375
44.50634765625 -9.64892578125 0.67529296875
-34.255126953125 -30.06982421875 -15.1873779296875
-24.906982421875 -33.2861328125 -16.869873046875
1.612548828125 20.86474609375 -4.3824462890625
-12.259033203125 -1.991943359375 10.925537109375
-36.751953125 -18.328369140625 13.5208740234375
-1.362548828125 1.070556640625 12.7679443359375
-3.90576171875 -25.769775390625 1.574462890625
-35.693359375 -23.49072265625 -18.61669921875
22.488037109375 -22.522705078125 -3.177978515625
1.989013671875 -33.684814453125 -5.1783447265625
52.894287109375 -27.351806640625 -25.3653564453125
12.702392578125 -27.109375 -3.1263427734375
67.4521484375 -17.169677734375 -19.6556396484375
-65.80126953125 -10.549072265625 -0.234130859375
-12.02099609375 -1.062744140625 18.3116455078125
-0.931396484375 27.524169921875 20.5953369140625
26.378662109375 -28.206787109375 -6.244140625
34.991943359375 -29.4541015625 -24.8468017578125
-7.1220703125 -29.188232421875 -2.42041015625
62.808837890625 -19.5556640625 -20.606689453125
66.722412109375 -27.199462890625 -23.944580078125
45.8046875 -16.008544921875 -2.4136962890625
26.34765625 22.17138671875 17.3758544921875
19.583740234375 0.919189453125 7.4000244140625
52.1435546875 -20.28369140625 -4.93798828125
63.278076171875 -14.79345703125 -21.375244140625
35.240966796875 -3.505615234375 4.565673828125
-15.605224609375 -5.29345703125 -2.354248046875
37.072998046875 -28.130615234375 -19.4071044921875
47.97900390625 14.134765625 15.0030517578125
55.8486328125 14.73095703125 24.66552734375
42.736328125 -33.49072265625 -10.7750244140625
-27.684326171875 36.458251953125 12.518798828125
57.651123046875 -31.49951171875 -27.15087890625
-57.806884765625 -9.719482421875 -5.4293212890625
-30.174072265625 -20.023681640625 -17.486328125
17.580078125 -17.797607421875 -0.8526611328125
-14.02294921875 -0.12939453125 2.8392333984375
1.21142578125 -33.731689453125 -25.1944580078125
-40.354248046875 -18.605224609375 20.2095947265625
44.228515625 -31.0205078125 -26.622314453125
-10.465087890625 -2.795166015625 -10.1300048828125
-16.81005859375 -25.261474609375 4.59130859375
51.255615234375 -22.529052734375 -19.534912109375
-1.46044921875 31.518798828125 3.16943359375
55.732421875 -34.818359375 -28.7711181640625
24.648193359375 16.720458984375 -9.813232421875
63.497802734375 -19.328369140625 -13.950927734375
-2.153076171875 -1.61474609375 -1.3028564453125
-7.07958984375 -1.62060546875 13.1829833984375
64.942626953125 -22.806884765625 -5.21923828125
-14.67919921875 28.211181640625 0.75732421875
-6.441162109375 4.568115234375 17.3211669921875
0.22265625 -28.76123046875 0.5740966796875
-14.885986328125 -4.229736328125 15.2781982421875
44.12744140625 30.454833984375 7.1834716796875
-9.763427734375 21.13720703125 -0.1414794921875
-63.49267578125 32.681884765625 12.6895751953125
29.6591796875 -33.465576171875 -8.425048828125
39.19091796875 -14.308837890625 -0.71142578125
-9.443359375 -34.31103515625 -23.118896484375
-59.121826171875 -7.235107421875 2.2447509765625
-6.69921875 1.9853515625 -6.2847900390625
42.29052734375 -28.471435546875 -17.1591796875
-44.047119140625 -20.398681640625 -11.831787109375
64.650390625 9.71484375 36.8955078125
-53.292724609375 -10.025146484375 -7.1533203125
-15.54833984375 -26.685791015625 -17.64453125
-11.850830078125 -27.364990234375 -1.1781005859375
-11.332763671875 -26.808837890625 -16.9365234375
-40.617431640625 -11.89892578125 -6.220458984375
3.097412109375 1.5517578125 3.3509521484375
63.384033203125 -23.185302734375 -8.781982421875
-51.324462890625 -17.385498046875 -8.4580078125
-8.845458984375 -28.919189453125 -19.388427734375
67.532470703125 -24.738037109375 15.596923828125
2.43798828125 34.052734375 0.8658447265625
48.122802734375 -22.5947265625 -5.4501953125
-16.901611328125 -34.98095703125 -20.880126953125
-11.358642578125 -30.9951171875 -22.2659912109375
-29.797607421875 28.571533203125 4.654541015625
62.466552734375 -31.965087890625 -30.1944580078125
24.69580078125 5.09326171875 7.1636962890625
56.801025390625 -22.360107421875 -16.5457763671875
-2.923583984375 -13.015380859375 -3.0631103515625
-8.11376953125 -7.031005859375 -8.89306640625
55.72265625 -19.615478515625 -22.75390625
-28.52099609375 -16.81787109375 -13.97314453125
-27.47265625 22.44775390625 5.66650390625
-24.638427734375 33.445556640625 4.3359375
67.606201171875 -20.51904296875 -8.7630615234375
64.882080078125 2.15380859375 33.988037109375
-4.293212890625 0.657470703125 -9.717041015625
-11.597900390625 4.09375 -7.02294921875
20.965087890625 -31.137939453125 -24.1617431640625
-16.027099609375 -27.397216796875 -0.3853759765625
36.562744140625 22.292724609375 -7.609375
25.75244140625 -12.85205078125 1.0216064453125
58.131103515625 -22.41943359375 -5.275634765625
9.781494140625 -33.744140625 -26.14111328125
-62.8251953125 -11.7744140625 -1.8026123046875
7.37841796875 -37.548095703125 -8.131103515625
19.224853515625 17.71435546875 -7.53369140625
-57.103515625 33.5029296875 11.1927490234375
27.923828125 -0.94921875 5.7899169921875
33.10205078125 -0.37158203125 6.3338623046875
48.083251953125 -9.17919921875 -0.5814208984375
-41.9326171875 35.305908203125 10.508056640625
-0.2900390625 2.00537109375 0.392822265625
29.82177734375 23.107177734375 -6.3248291015625
0.400146484375 -27.4326171875 6.5494384765625
-52.861328125 -5.70751953125 -1.59619140625
39.926025390625 -0.259765625 2.845703125
9.120361328125 32.3447265625 1.801513671875
36.029296875 -34.708984375 -9.3873291015625
-30.70703125 32.200927734375 5.7110595703125
-39.512939453125 -22.266845703125 -14.2215576171875
-19.6279296875 -25.28662109375 10.7532958984375
48.83984375 20.35205078125 20.841552734375
-21.77001953125 -36.620361328125 -15.3017578125
7.640380859375 -19.610107421875 -0.2239990234375
60.3154296875 -24.287841796875 -25.1405029296875
55.806884765625 -24.2353515625 -23.69677734375
31.604248046875 18.146728515625 15.152587890625
42.17529296875 -7.060791015625 1.8348388671875
3.691650390625 34.1728515625 4.186767578125
6.7392578125 -30.10888671875 -4.4224853515625
42.507080078125 -12.8828125 -1.06298828125
35.208740234375 24.92138671875 17.9664306640625
-7.7900390625 -1.541015625 -12.9920654296875
5.997802734375 23.3310546875 -6.5811767578125
63.38232421875 -24.27001953125 16.4066162109375
3.124755859375 -5.088134765625 1.9638671875
9.41748046875 27.106689453125 22.0823974609375
36.254150390625 14.9814453125 13.94287109375
-16.586669921875 -14.957763671875 8.9942626953125
69.1962890625 12.647216796875 29.9957275390625
18.9951171875 -11.415771484375 3.0711669921875
16.149169921875 19.859130859375 -6.61083984375
32.76220703125 -21.42578125 -3.6053466796875
67.548095703125 -22.85205078125 -24.142578125
16.03125 -32.660888671875 -6.28369140625
12.349853515625 26.215576171875 -2.4925537109375
13.25244140625 -29.877685546875 -5.2034912109375
59.064697265625 -19.1669921875 -18.343505859375
10.0224609375 -25.010986328125 -3.30712890625
-8.05419921875 -33.22314453125 -5.306884765625
-43.455322265625 -15.642333984375 13.82373046875
28.799072265625 -32.027099609375 -26.52734375
15.592041015625 -6.642578125 5.66845703125
18.028564453125 6.051513671875 9.0440673828125
-6.63525390625 25.974365234375 -1.4044189453125
-9.060302734375 -0.38525390625 16.8524169921875
-60.072021484375 31.66015625 11.615234375
63.071533203125 -21.737548828125 -24.0877685546875
14.99169921875 -31.28515625 -22.1915283203125
18.467041015625 -22.9462890625 -1.9044189453125
0.273681640625 -4.810302734375 -0.7919921875
-25.7646484375 34.947021484375 10.198974609375
-4.9013671875 4.937255859375 14.3172607421875
-56.91845703125 -14.749267578125 -9.5692138671875
-4.622314453125 -31.671630859375 -11.3236083984375
37.634521484375 -17.154296875 -2.334228515625
-0.057373046875 28.492919921875 -1.16015625
-11.0595703125 37.042724609375 4.773681640625
-4.92333984375 1.745361328125 -2.731689453125
-15.720703125 -11.650634765625 5.0120849609375
-43.44970703125 29.739501953125 7.7933349609375
62.442138671875 -3.83056640625 34.615234375
-53.930419921875 -19.9619140625 -5.2969970703125
18.863525390625 28.080810546875 19.18701171875
-32.2578125 -16.99462890625 -12.4022216796875
50.640869140625 -31.778564453125 -26.1800537109375
11.916259765625 25.22705078125 18.53564453125
31.703369140625 -15.927978515625 -1.5423583984375
-15.095947265625 31.40283203125 3.1759033203125
45.24853515625 18.77099609375 12.92529296875
-4.297607421875 -29.075927734375 -16.6993408203125
39.70556640625 -28.265869140625 -7.851318359375
21.884033203125 -2.8818359375 5.8682861328125
-59.665771484375 37.880615234375 14.8218994140625
27.810791015625 -23.396728515625 -2.9505615234375
64.64697265625 -2.23486328125 27.0806884765625
-42.64208984375 -26.153564453125 -13.3055419921875
-5.764892578125 -23.020751953125 2.4654541015625
65.032470703125 -1.386962890625 30.521484375
48.852783203125 -24.959228515625 -22.8790283203125
-37.243408203125 35.866455078125 11.1405029296875
-14.142333984375 -23.523681640625 3.910888671875
-13.515625 -1.972412109375 -8.6695556640625
-14.037353515625 20.33935546875 -0.4383544921875
42.10595703125 24.17041015625 16.5968017578125
-39.88916015625 -16.624267578125 -10.844970703125
-36.187255859375 -34.858642578125 -12.134765625
38.431884765625 -2.9287109375 4.6959228515625
-43.401611328125 -13.9814453125 -7.6729736328125
-16.025390625 -8.3525390625 10.457275390625
44.810546875 -29.40966796875 -15.015869140625
-50.751220703125 -22.758544921875 -8.2332763671875
-2.08447265625 -31.511962890625 -3.0875244140625
-33.268798828125 -20.689208984375 -18.04052734375
38.776611328125 -27.839111328125 -22.83349609375
-41.47607421875 24.83349609375 8.516357421875
2.253662109375 23.445556640625 -6.168212890625
38.240478515625 -31.09912109375 -8.1279296875
-36.85595703125 30.722900390625 6.7374267578125
43.216796875 -28.109619140625 -7.2669677734375
41.7138671875 -18.9853515625 -3.436767578125
-37.484130859375 -12.958740234375 -8.7342529296875
5.203369140625 29.69384765625 -3.7857666015625
-10.187744140625 -24.71728515625 1.996826171875
15.22314453125 27.459716796875 19.9202880859375
-17.473876953125 -11.1123046875 11.6859130859375
-62.164306640625 -14.87255859375 -1.8214111328125
-37.94580078125 -28.735107421875 -15.5159912109375
27.978515625 3.91064453125 6.882568359375
-34.40869140625 -19.33154296875 8.1485595703125
-14.621337890625 0.679931640625 -1.02685546875
-47.83984375 36.534912109375 13.072998046875
-11.840576171875 -3.00244140625 7.9686279296875
-19.88037109375 37.540771484375 7.468017578125
33.495849609375 -27.11181640625 -5.425048828125
52.6171875 -26.758056640625 -10.0128173828125
-14.525634765625 -17.76123046875 7.49951171875
61.439453125 -2.6767578125 30.6239013671875
23.303955078125 -38.72265625 -10.2821044921875
-57.894287109375 -19.13525390625 -5.658203125
60.84619140625 -27.357421875 -25.4404296875
1.947021484375 -30.37744140625 -19.562255859375
66.744873046875 8.33349609375 29.0128173828125
-15.190185546875 0.26220703125 -5.242919921875
23.133544921875 22.74365234375 -7.6529541015625
-55.64013671875 -8.326171875 3.818115234375
1.96044921875 -16.737060546875 -0.9852294921875
41.233154296875 26.87939453125 17.904052734375
48.877685546875 -16.0224609375 -2.9222412109375
-25.153076171875 -21.33154296875 -10.7252197265625
-2.525390625 -16.087646484375 -3.180419921875
-51.3740234375 26.4287109375 10.4608154296875
0.904296875 31.775390625 6.116455078125
-45.542724609375 -24.764404296875 -11.2442626953125
-25.282470703125 33.435546875 7.3604736328125
47.731689453125 -24.8193359375 -18.00634765625
8.943359375 -6.386962890625 4.9674072265625
-22.544189453125 -27.465576171875 -18.0086669921875
25.88916015625 -33.611083984375 -16.5416259765625
22.3369140625 -33.244873046875 -8.072509765625
12.540771484375 -38.8330078125 -9.524658203125
27.763427734375 -17.451416015625 -1.659912109375
49.85693359375 -21.418212890625 -24.1923828125
61.0771484375 -24.0068359375 -5.8341064453125
-23.206298828125 37.617431640625 10.0384521484375
-3.1044921875 25.391357421875 -2.50830078125
-4.419189453125 -2.22509765625 -14.6934814453125
-24.61328125 -22.508544921875 -14.655029296875
-18.4755859375 -28.784912109375 10.265380859375
4.58056640625 32.0302734375 0.0150146484375
40.658447265625 -31.60888671875 -26.5733642578125
7.0498046875 -10.07958984375 3.2421875
8.470703125 27.7958984375 -2.8447265625
27.10693359375 18.2060546875 14.2052001953125
47.538330078125 -27.381103515625 -13.2366943359375
2.126953125 -0.1982421875 6.0078125
4.4111328125 -15.150390625 1.38720703125
65.266357421875 0.694091796875 26.5411376953125
19.986572265625 23.8486328125 17.99072265625
-49.961181640625 -22.644287109375 -11.1646728515625
-1.705322265625 22.24560546875 -2.328369140625
-33.10791015625 25.119873046875 6.0897216796875
-9.952880859375 20.776611328125 -3.154052734375
-31.58642578125 -21.654052734375 7.9808349609375
-10.819091796875 28.46533203125 -0.2139892578125
66.02001953125 15.8232421875 -9.958740234375
7.62890625 -31.19873046875 -20.2569580078125
66.751708984375 11.00048828125 34.5665283203125
40.05029296875 -22.7119140625 -4.5921630859375
15.63916015625 -26.60546875 -3.6114501953125
5.26416015625 -31.3515625 -22.9599609375
64.3388671875 -28.73779296875 -25.6988525390625
28.541015625 -35.93310546875 -9.9385986328125
48.042724609375 -4.15869140625 2.6546630859375
-5.439208984375 5.045166015625 -1.657958984375
42.264404296875 13.814697265625 10.2242431640625
63.548828125 -30.08544921875 13.03369140625
30.55810546875 -29.349853515625 -20.0792236328125
-10.88134765625 0.245361328125 -10.104736328125
23.55126953125 -28.908447265625 -5.5218505859375
21.717529296875 26.44775390625 0.14111328125
5.983154296875 32.5009765625 7.2197265625
22.1923828125 -32.81103515625 -26.3172607421875
9.41845703125 -32.353759765625 -5.476806640625
24.146728515625 25.9150390625 17.9932861328125
2.291748046875 0.09912109375 11.381591796875
10.775146484375 -18.916259765625 1.130615234375
12.263916015625 -22.752197265625 -2.48095703125
24.767578125 -31.284912109375 -26.0289306640625
11.900634765625 -13.974365234375 1.3411865234375
61.415283203125 -23.77490234375 22.1734619140625
-17.712890625 -25.67041015625 1.8072509765625
-48.817138671875 -18.85693359375 -8.9869384765625
-24.087158203125 26.5068359375 -0.2509765625
-27.963134765625 -24.78271484375 -16.439208984375
-6.66064453125 -9.85546875 -6.002197265625
-22.984130859375 -23.535888671875 2.7021484375
15.73291015625 -20.004638671875 -1.8172607421875
28.861572265625 23.795166015625 17.5550537109375
-3.319580078125 -21.44091796875 4.861083984375
-50.921630859375 -9.65087890625 -4.7183837890625
15.8251953125 22.761962890625 -5.0970458984375
61.85400390625 3.61328125 32.1978759765625
-15.986083984375 -20.143798828125 8.85888671875
-2.2587890625 32.20654296875 5.906982421875
21.129150390625 -15.571533203125 -0.207275390625
29.847412109375 11.919189453125 -10.134033203125
52.2578125 -20.174560546875 -21.4002685546875
-50.951416015625 32.130615234375 9.53759765625
-36.511962890625 -26.310302734375 -16.8675537109375
22.931396484375 3.572998046875 8.923095703125
-26.16162109375 -28.373291015625 -17.5107421875
-48.226318359375 -9.5146484375 0.0506591796875
53.4814453125 -24.956298828125 -14.657470703125
-7.56494140625 31.754150390625 2.9749755859375
-53.995849609375 31.9736328125 10.231201171875
-18.111328125 34.639892578125 6.6287841796875
11.50146484375 24.18115234375 -4.3817138671875
-9.659912109375 -0.137451171875 11.4708251953125
43.35107421875 21.929443359375 -6.6485595703125
26.696044921875 1.336669921875 7.1236572265625
-55.319580078125 -7.181884765625 -1.8795166015625
45.826171875 24.112548828125 17.7122802734375
9.81005859375 32.718994140625 4.828125
-39.214599609375 -29.886962890625 -13.1768798828125
52.59765625 -16.7041015625 -3.3563232421875
-16.90673828125 -7.448974609375 17.2841796875
-4.7392578125 32.41796875 7.4212646484375
-53.400634765625 -15.1474609375 -7.69140625
-31.49755859375 35.176513671875 10.665283203125
-5.678466796875 -29.000732421875 -19.2098388671875
53.083251953125 14.701416015625 25.9112548828125
-22.815673828125 34.462646484375 14.9947509765625
-31.51611328125 34.235107421875 7.753662109375
65.14453125 -31.0556640625 -29.1019287109375
25.393798828125 -36.01513671875 -8.5604248046875
15.91162109375 26.99560546875 0.1781005859375
43.2978515625 -31.78271484375 -13.077392578125
43.33935546875 33.1533203125 7.635986328125
21.723876953125 16.560546875 -8.3956298828125
8.253662109375 21.484130859375 -4.9033203125
31.2392578125 -32.553955078125 -15.437255859375
-7.864013671875 34.01953125 5.3709716796875
-39.67236328125 -15.78125 14.7811279296875
42.892578125 7.560302734375 -13.1827392578125
9.648681640625 -0.75 5.5631103515625
-59.05615234375 -12.392578125 -7.6510009765625
-22.414794921875 35.98095703125 4.424560546875
7.2119140625 25.40380859375 -4.8343505859375
-40.476806640625 32.755126953125 7.744140625
66.09033203125 8.428955078125 32.9991455078125
18.20263671875 24.6005859375 -3.863037109375
-5.282470703125 -26.990478515625 -1.4598388671875
24.766357421875 -1.525146484375 5.6590576171875
-21.4765625 25.39404296875 -0.4044189453125
-5.52099609375 -32.73486328125 -23.8375244140625
-53.107421875 -24.3515625 -12.3453369140625
48.03125 -29.697509765625 -11.0126953125
-48.47412109375 -13.4150390625 -7.519287109375
-17.859375 -29.5859375 -1.342041015625
-25.984619140625 30.54052734375 1.789306640625
18.0859375 -32.178955078125 -24.998046875
2.50732421875 25.130859375 -3.699951171875
-60.917724609375 29.058837890625 12.167724609375
-46.652099609375 -17.925048828125 -11.2501220703125
24.36181640625 -7.739990234375 4.294921875
17.78076171875 -36.929443359375 -9.460693359375
-57.37060546875 35.98583984375 12.401611328125
21.349853515625 -26.804931640625 -4.368408203125
-1.125732421875 -31.17822265625 -23.3023681640625
-46.96142578125 33.546630859375 9.6370849609375
22.91015625 -30.716064453125 -20.3349609375
-50.97705078125 36.092041015625 12.0361328125
27.20166015625 15.88427734375 -10.436279296875
25.928466796875 -15.514404296875 0.32421875
-1.923583984375 -18.70751953125 -2.5677490234375
11.97265625 -31.1591796875 -21.786376953125
-48.094482421875 -21.2275390625 -7.3729248046875
7.84912109375 1.3974609375 6.41845703125
45.011474609375 -18.51953125 -3.1978759765625
-53.893310546875 36.858154296875 13.4302978515625
39.80419921875 -28.17724609375 -18.468505859375
-39.718994140625 -26.77734375 -13.714599609375
-8.125732421875 1.4326171875 0.3643798828125
-16.04443359375 19.047607421875 -1.7767333984375
28.325439453125 -30.566650390625 -7.02978515625
-17.913818359375 32.92724609375 4.147705078125
-1.06103515625 -22.694091796875 1.90478515625
-35.110107421875 -18.164794921875 -13.6925048828125
21.5869140625 -5.62841796875 3.969970703125
2.77490234375 17.69189453125 -4.8944091796875
42.377685546875 21.51416015625 16.0545654296875
57.08154296875 -22.419189453125 -22.1202392578125
-26.111328125 21.885986328125 1.9976806640625
-7.090576171875 -30.93212890625 -10.454833984375
54.145751953125 -21.96435546875 -22.1826171875
27.006103515625 -29.9853515625 -23.37060546875
-45.434326171875 -10.68212890625 -3.62109375
51.75927734375 -26.58447265625 -12.9219970703125
-53.01513671875 -21.822021484375 -7.0401611328125
40.781982421875 -4.563720703125 2.9482421875
-33.946044921875 27.80322265625 5.73291015625
-13.888427734375 -12.107177734375 2.5035400390625
27.44677734375 -26.085693359375 -4.9921875
-10.439208984375 33.406494140625 7.4443359375
31.03857421875 22.372802734375 15.6046142578125
-24.287109375 -36.55322265625 -16.228515625
50.202392578125 -12.4501953125 -1.510498046875
29.414794921875 -8.158935546875 1.8533935546875
-28.466796875 -33.104248046875 -14.450927734375
-0.690673828125 -30.230224609375 -20.5897216796875
-34.234619140625 -32.59912109375 -12.021728515625
51.75439453125 -22.758056640625 -5.869140625
-58.476806640625 -22.202392578125 -4.228515625
5.599853515625 16.77294921875 -4.7093505859375
38.32958984375 16.652099609375 14.140869140625
67.5615234375 -16.451171875 -17.0858154296875
31.843994140625 23.841796875 -3.339599609375
-4.401123046875 30.737548828125 1.8807373046875
53.12744140625 -23.10205078125 -17.72509765625
-36.104248046875 32.796875 8.48486328125
22.00146484375 20.8994140625 16.1558837890625
-55.6845703125 -8.3583984375 -6.28466796875
24.43994140625 -10.021484375 2.3848876953125
-27.79443359375 27.021728515625 3.8341064453125
-5.010009765625 0.040771484375 13.379638671875
60.25732421875 -31.706298828125 -28.7425537109375
-14.705078125 -4.388916015625 -9.286376953125
-28.792236328125 33.57177734375 6.9322509765625
19.292236328125 -7.786865234375 3.029296875
3.073974609375 -36.14599609375 -5.67822265625
11.9462890625 -5.638671875 4.861083984375
32.86474609375 -29.294189453125 -23.2987060546875
-10.961669921875 -0.67529296875 8.833740234375
-18.2490234375 20.356201171875 0.90966796875
63.47021484375 -20.267333984375 18.424072265625
29.913330078125 27.02392578125 19.2894287109375
46.68505859375 -25.917724609375 -24.0020751953125
-16.263671875 -1.78125 -2.917236328125
-22.353271484375 -33.90673828125 -18.5526123046875
-12.322998046875 -7.642822265625 -8.7115478515625
-14.75048828125 -5.053466796875 12.7989501953125
-39.047607421875 -17.03466796875 17.8223876953125
57.43359375 -25.29345703125 -7.0833740234375
18.978759765625 26.196044921875 -1.2733154296875
-19.15283203125 -14.592529296875 14.65234375
43.99853515625 -34.087158203125 -27.48095703125
66.21630859375 5.074462890625 28.498779296875
45.46240234375 -30.802001953125 -9.818359375
-45.093994140625 -15.005615234375 -9.364501953125
10.163818359375 -27.560791015625 -2.78076171875
3.1474609375 4.611083984375 14.2587890625
26.4873046875 22.52490234375 -7.1224365234375
16.556396484375 0.5849609375 7.636962890625
6.701171875 28.003173828125 -5.0655517578125
9.115478515625 -35.130859375 -7.3939208984375
58.960693359375 10.731201171875 28.8455810546875
37.40380859375 -25.486328125 -5.427001953125
34.328857421875 -35.50048828125 -11.55419921875
-10.107177734375 -5.358642578125 -10.1328125
54.12451171875 11.99462890625 25.9990234375
-13.745361328125 -31.945068359375 -21.9503173828125
33.8603515625 -9.74658203125 1.8692626953125
11.517333984375 -32.53515625 -24.6529541015625
3.72705078125 12.4482421875 -4.536865234375
-12.582275390625 35.1787109375 5.7154541015625
42.79931640625 -25.09765625 -6.8988037109375
65.31591796875 -26.06298828125 15.5264892578125
-0.676025390625 18.34521484375 -4.5941162109375
-48.294921875 -12.1796875 -5.1666259765625
-37.06298828125 -16.222900390625 -8.533935546875
37.12451171875 -31.7607421875 -15.4578857421875
21.421875 23.771240234375 -6.0228271484375
34.58203125 27.63720703125 17.64892578125
-21.51904296875 -25.429931640625 -16.80712890625
-37.122802734375 28.191650390625 6.33837890625
23.092529296875 -20.3662109375 -1.9091796875
-54.42529296875 28.180908203125 10.392578125
57.69287109375 4.97314453125 29.9307861328125
-33.8369140625 -14.237060546875 -11.0506591796875
-29.121337890625 -22.4892578125 -16.5048828125
-9.839599609375 -0.670166015625 19.6070556640625
-20.03369140625 -32.04443359375 -19.986572265625
43.746826171875 12.4853515625 12.0068359375
0.325439453125 -30.867919921875 -3.665283203125
15.260498046875 -17.77490234375 0.2313232421875
-20.671630859375 33.354736328125 2.4395751953125
14.447509765625 -9.4013671875 3.9281005859375
-25.988037109375 -35.599853515625 -14.450927734375
8.27587890625 10.701416015625 0.865478515625
68.123779296875 0.018798828125 23.9510498046875
62.794921875 -21.6650390625 -11.4248046875
18.3388671875 -31.689697265625 -5.8663330078125
50.52392578125 -27.906494140625 -8.8402099609375
39.041748046875 -34.53173828125 -27.346435546875
3.75146484375 -33.814208984375 -25.57373046875
44.96630859375 -2.3701171875 2.828369140625
58.78564453125 -20.02001953125 -21.3787841796875
36.48583984375 23.009033203125 16.9049072265625
48.166259765625 20.9228515625 18.4730224609375
-5.06982421875 -15.325439453125 -3.7598876953125
-41.48974609375 36.9169921875 13.759521484375
16.85595703125 -4.224365234375 6.4112548828125
-34.919921875 -19.5283203125 10.60546875
-47.081787109375 28.017333984375 8.822509765625
-10.21728515625 -29.268798828125 -1.0650634765625
32.660888671875 -12.863037109375 -0.139892578125
-6.646484375 -1.473876953125 10.7169189453125
51.425048828125 -34.279541015625 -24.546630859375
33.949462890625 18.454833984375 14.32861328125
-4.489013671875 -29.36474609375 -2.6666259765625
-63.5419921875 35.127197265625 13.199462890625
-14.533203125 25.703857421875 0.212890625
67.57080078125 -21.082763671875 -2.8948974609375
-35.438232421875 36.741943359375 13.17431640625
13.08349609375 27.09326171875 -0.27978515625
38.97119140625 -7.6337890625 1.7080078125
-47.15380859375 -25.95751953125 -12.71875
-1.671630859375 27.3291015625 23.31103515625
4.273193359375 -2.489501953125 9.6563720703125
-52.111572265625 -5.65625 0.9300537109375
6.370361328125 32.74560546875 1.5833740234375
65.537353515625 -15.618408203125 -19.9698486328125
5.3828125 -4.797607421875 3.3289794921875
37.97998046875 -11.64404296875 0.9007568359375
24.9111328125 20.701416015625 -8.511474609375
-44.34423828125 34.622314453125 10.474853515625
14.033935546875 -35.770751953125 -6.788330078125
-49.828125 -8.66357421875 -2.1834716796875
57.165771484375 -24.013671875 -14.435546875
41.79248046875 -26.67578125 -22.8206787109375
47.297119140625 -29.524658203125 -26.359130859375
4.27880859375 -27.40234375 -2.6337890625
7.353759765625 -24.70654296875 -1.8316650390625
-4.221923828125 0.397216796875 -7.27978515625
-18.8232421875 23.702392578125 1.7298583984375
11.96240234375 28.4443359375 2.9771728515625
57.8173828125 -24.861328125 -11.3038330078125
-9.067626953125 2.5087890625 -6.6202392578125
37.313720703125 -31.091552734375 -26.598388671875
44.565185546875 -13.9130859375 -2.17333984375
35.69580078125 -15.88134765625 -0.8515625
33.317626953125 23.128662109375 -5.4322509765625
-57.47998046875 -16.14404296875 -7.6453857421875
46.701171875 15.957763671875 13.94873046875
-14.154296875 -28.228759765625 -1.7091064453125
48.03369140625 -20.681884765625 -22.7501220703125
2.633544921875 14.7734375 -4.1732177734375
-17.483642578125 -25.6845703125 -16.564208984375
27.360595703125 -34.16015625 -27.6190185546875
-0.462158203125 -0.75146484375 10.85791015625
-4.015380859375 3.537841796875 12.5447998046875
52.3427734375 -26.983154296875 -7.5274658203125
9.028076171875 -8.91796875 4.1668701171875
-38.666259765625 24.78173828125 8.1676025390625
-9.224609375 0.1826171875 6.6048583984375
-3.770263671875 18.331298828125 -4.7967529296875
23.615478515625 -14.875 0.5653076171875
56.177978515625 -30.270751953125 -25.689697265625
32.145263671875 -32.47607421875 -8.75390625
-15.178955078125 34.890869140625 10.2421875
52.188720703125 -29.9423828125 -26.05322265625
6.982421875 25.4150390625 22.0252685546875
-17.8740234375 -23.99365234375 -13.3114013671875
47.82080078125 -25.9541015625 -15.1475830078125
-22.357666015625 -23.322021484375 -14.6904296875
38.018798828125 -33.4443359375 -8.5704345703125
-59.986083984375 -9.442138671875 -1.39208984375
-26.853515625 29.73779296875 3.869140625
31.621337890625 -30.5556640625 -6.935791015625
-42.6298828125 -18.38134765625 -12.0491943359375
-5.509033203125 -11.48583984375 -4.6868896484375
-14.933837890625 -30.0009765625 -20.8604736328125
-4.02197265625 -34.385498046875 -4.5582275390625
6.51123046875 0.915771484375 10.9884033203125
11.912841796875 -11.038330078125 3.747314453125
-0.3515625 -35.867919921875 -7.4615478515625
27.087646484375 -4.7626953125 5.4886474609375
53.92333984375 -25.322021484375 -6.4248046875
14.367431640625 18.329345703125 -6.2318115234375
60.235107421875 5.985107421875 29.5946044921875
-50.027587890625 -15.517333984375 -9.1400146484375
-15.976318359375 -6.288330078125 19.1318359375
20.08642578125 3.970947265625 8.7972412109375
-0.468505859375 19.714599609375 -2.3511962890625
15.069091796875 -31.562255859375 -19.840087890625
38.42333984375 23.26953125 -4.95751953125
27.85693359375 -36.91552734375 -12.030029296875
16.01416015625 7.289306640625 9.0264892578125
-47.28076171875 -23.62158203125 -12.381103515625
-14.00390625 -20.96240234375 3.971435546875
-17.51123046875 -10.482177734375 14.4107666015625
-61.80029296875 37.088623046875 14.2008056640625
-3.4208984375 -23.004150390625 2.73388671875
21.076416015625 21.22119140625 -7.9588623046875
7.310302734375 -0.80078125 5.293212890625
-34.17431640625 -24.9365234375 -19.684814453125
54.497314453125 -17.77783203125 -23.5533447265625
4.269287109375 30.215087890625 -1.5328369140625
-17.101318359375 28.229736328125 1.0960693359375
65.798583984375 -22.79833984375 16.9989013671875
67.405517578125 12.889892578125 31.495361328125
7.26806640625 4.419921875 1.4473876953125
-58.764404296875 29.037841796875 11.1614990234375
15.782470703125 -33.576904296875 -26.820068359375
-17.799072265625 -24.2333984375 12.570068359375
36.526611328125 -28.4697265625 -22.98095703125
18.180908203125 -20.078369140625 -1.4373779296875
58.680908203125 -19.353515625 -3.70654296875
-37.031005859375 -27.31884765625 -13.527587890625
6.554443359375 8.067626953125 -0.087646484375
-31.727783203125 -28.218017578125 -17.3248291015625
-34.46484375 -19.8857421875 -16.2193603515625
-6.41943359375 1.330078125 -11.67138671875
-53.51416015625 -12.85205078125 -7.366455078125
57.232177734375 -17.37158203125 -22.4896240234375
-1.8798828125 27.27099609375 -1.925537109375
20.599853515625 -30.81787109375 -20.4552001953125
-58.4111328125 -11.008056640625 -3.602783203125
43.4658203125 19.841064453125 14.6229248046875
47.389892578125 25.21240234375 19.6741943359375
-29.355712890625 -21.116943359375 8.269287109375
-46.22119140625 25.54931640625 8.151123046875
9.3740234375 28.339599609375 20.129638671875
53.12939453125 -20.2060546875 -23.5968017578125
3.754150390625 -1.98046875 2.5048828125
67.4638671875 3.74365234375 26.3516845703125
-19.793212890625 31.0869140625 2.9100341796875
-17.397216796875 -29.181884765625 -20.10693359375
22.180908203125 -24.732421875 -3.72509765625
41.098876953125 16.595947265625 13.0440673828125
27.572265625 -34.40283203125 -8.2364501953125
-12.456787109375 24.84765625 -0.2530517578125
-8.638671875 -12.00146484375 -6.221923828125
39.095458984375 20.662841796875 15.5384521484375
-41.364990234375 -14.44970703125 -6.7445068359375
24.118408203125 -30.484619140625 -7.0771484375
48.00439453125 -6.878662109375 1.3446044921875
26.885498046875 24.471435546875 -4.267578125
-39.59765625 -11.53857421875 -8.227783203125
-1.946044921875 1.080322265625 -0.8720703125
-12.314453125 -30.5224609375 -1.1317138671875
-22.656494140625 29.811767578125 0.24609375
-27.13720703125 -18.309326171875 -12.9501953125
19.189453125 25.713134765625 19.026123046875
-16.73583984375 22.052978515625 1.0093994140625
3.4912109375 -30.88525390625 -4.9100341796875
68.413818359375 7.838623046875 27.121826171875
63.034912109375 -27.16162109375 -24.7086181640625
-17.89013671875 -13.236328125 9.6956787109375
-1.62255859375 30.455078125 1.1705322265625
29.348388671875 17.897705078125 15.10693359375
55.0078125 -20.985107421875 -5.2138671875
-63.2880859375 -5.5576171875 2.7119140625
44.7607421875 14.255615234375 12.9952392578125
30.54443359375 -4.963623046875 3.7362060546875
-10.43359375 4.804443359375 -4.7232666015625
36.496337890625 10.652587890625 -12.973388671875
19.314453125 -27.531494140625 -5.1591796875
60.98583984375 -18.049072265625 -18.756103515625
-13.888671875 -2.363525390625 12.4473876953125
20.011474609375 -2.475830078125 7.0618896484375
-11.721923828125 -22.592041015625 2.2435302734375
14.6796875 -1.934326171875 6.4293212890625
33.0078125 -31.02197265625 -25.882568359375
-8.77880859375 -19.72802734375 2.80517578125
30.60107421875 -36.329345703125 -11.8961181640625
-44.09814453125 -27.2431640625 -15.588623046875
20.043212890625 15.2587890625 -7.6624755859375
65.6796875 2.759033203125 27.324462890625
47.708251953125 -25.845947265625 -6.778564453125
-36.860595703125 -23.565185546875 -15.68603515625
-30.030029296875 -15.681396484375 -7.805908203125
62.328857421875 -17.366455078125 -20.602783203125
53.8427734375 -37.251220703125 -22.6412353515625
2.91845703125 -9.415771484375 0.8837890625
25.91943359375 27.758056640625 18.6932373046875
26.903076171875 20.627685546875 15.8525390625
48.330078125 -28.311279296875 -8.6275634765625
-6.34130859375 -31.13525390625 -3.4923095703125
40.259033203125 -12.187744140625 0.54052734375
35.3466796875 -5.633544921875 3.890869140625
62.65625 -23.64453125 19.4766845703125
64.749267578125 -3.479248046875 28.932861328125
0.2724609375 26.77001953125 22.383056640625
21.19677734375 -11.102294921875 2.986572265625
35.98095703125 22.942626953125 -5.5623779296875
2.1787109375 35.1474609375 2.880126953125
-0.67724609375 -2.139404296875 8.512451171875
15.393310546875 -15.16015625 1.6492919921875
65.996826171875 -16.850830078125 -15.563720703125
-18.00439453125 20.26123046875 -3.2578125
-59.660400390625 -13.283935546875 -5.7027587890625
21.073974609375 -39.01806640625 -10.18603515625
-43.05859375 -10.211669921875 -5.3448486328125
66.40673828125 -20.18017578125 -11.1728515625
65.27392578125 -21.911376953125 -7.207275390625
51.5732421875 -13.288330078125 0.1500244140625
65.806884765625 5.66748046875 33.2822265625
-2.035888671875 -2.177490234375 -4.7685546875
-41.447509765625 -21.6015625 -13.400634765625
33.799560546875 -28.943359375 -6.6116943359375
24.097900390625 20.765869140625 16.8193359375
-42.41162109375 27.745849609375 7.816162109375
66.667236328125 -28.533447265625 -25.6951904296875
62.88623046875 -18.368896484375 -15.83544921875
-37.955322265625 -17.28515625 -11.6630859375
64.77001953125 -21.151611328125 -3.7802734375
49.833740234375 -8.2109375 -1.4964599609375
-24.293701171875 -28.862060546875 -18.5611572265625
-15.916748046875 -20.826171875 14.0560302734375
-18.676513671875 19.083740234375 2.868408203125
45.958740234375 -20.821533203125 -5.2950439453125
41.0732421875 -29.6064453125 -25.7821044921875
63.93994140625 -1.472900390625 32.4205322265625
18.98828125 -15.975830078125 -0.002685546875
53.544921875 -34.00439453125 -25.971435546875
-37.883544921875 -17.730712890625 11.491943359375
5.753662109375 -36.45166015625 -7.159912109375
-29.57080078125 35.778564453125 11.6470947265625
36.121826171875 -30.95166015625 -8.6409912109375
-64.0810546875 -4.38232421875 4.6451416015625
-50.159423828125 -20.6484375 -8.412109375
58.41845703125 -29.970458984375 -25.7972412109375
-7.964111328125 22.2548828125 -0.6519775390625
67.81689453125 10.67236328125 29.245849609375
-32.434326171875 -26.403564453125 -18.81689453125
6.4609375 -14.510009765625 2.2943115234375
5.46728515625 11.854248046875 -2.52490234375
-8.474609375 1.97900390625 -8.763671875
64.484619140625 -20.871826171875 -22.681884765625
42.799560546875 -30.4423828125 -14.7132568359375
17.507080078125 -31.268798828125 -22.6812744140625
-30.017822265625 -29.196533203125 -16.416015625
22.57177734375 25.224853515625 -4.744384765625
3.6533203125 28.0830078125 -3.9989013671875
-17.5908203125 -23.539794921875 9.4686279296875
62.777099609375 -22.101806640625 22.673583984375
64.89013671875 10.505859375 38.8934326171875
-3.633056640625 -29.359375 -19.804443359375
-52.792724609375 -18.9453125 -6.82568359375
64.975341796875 -29.432373046875 -27.690673828125
65.38818359375 1.576416015625 31.572998046875
-8.611083984375 -0.765869140625 4.267578125
-6.272705078125 20.625732421875 -1.3602294921875
-15.035400390625 -19.655517578125 6.617431640625
57.775634765625 10.024169921875 26.9215087890625
-12.110107421875 2.922119140625 -5.294189453125
23.870849609375 -34.203857421875 -16.101806640625
35.57568359375 17.41455078125 13.385986328125
60.8544921875 -29.531005859375 -25.4278564453125
-12.296142578125 1.30126953125 -1.5843505859375
-30.79931640625 -25.20947265625 -17.3497314453125
11.388916015625 -2.49609375 7.04052734375
-10.6591796875 -25.59912109375 -0.9344482421875
-2.38818359375 -26.7890625 -0.849609375
9.545654296875 -14.28369140625 2.1685791015625
66.40283203125 -24.637451171875 -24.407470703125
17.01513671875 -10.3681640625 1.95458984375
61.790771484375 -4.657958984375 32.755615234375
11.441650390625 -35.033447265625 -7.2550048828125
51.98779296875 -22.168212890625 -22.9140625
-1.2255859375 -27.2333984375 0.92626953125
66.009033203125 -18.5693359375 -20.36767578125
-41.8203125 -15.964111328125 -10.0279541015625
42.114013671875 -22.546875 -5.1756591796875
5.10546875 2.3642578125 15.0162353515625
29.40673828125 -21.98681640625 -2.978759765625
50.003173828125 -23.1865234375 -22.6173095703125
-11.646728515625 -17.73046875 5.543701171875
57.143798828125 -20.677734375 -4.5526123046875
32.019287109375 -8.3955078125 2.4766845703125
-25.844482421875 -31.02783203125 -17.5340576171875
30.239990234375 -33.876708984375 -27.1759033203125
61.14599609375 -19.39013671875 -17.0057373046875
54.02392578125 -25.345947265625 -24.0133056640625
16.373046875 -35.793701171875 -7.88134765625
20.31396484375 -32.635009765625 -7.096435546875
4.1220703125 -11.06591796875 2.2431640625
18.569580078125 7.491455078125 7.5848388671875
10.60107421875 -38.758056640625 -8.572265625
-9.041748046875 26.702392578125 -0.6951904296875
61.84130859375 -20.644775390625 -14.04345703125
-24.844970703125 31.73388671875 5.5655517578125
-40.79443359375 30.698486328125 7.3616943359375
30.910888671875 -1.11669921875 6.281982421875
30.941650390625 -14.0751953125 -0.3460693359375
34.029541015625 -11.3681640625 0.4595947265625
35.22900390625 -8.251708984375 2.4686279296875
53.753662109375 -35.078125 -28.0758056640625
-11.55615234375 -26.270263671875 -14.90576171875
0.1396484375 5.599365234375 12.5460205078125
57.347412109375 -20.3779296875 -18.549560546875
61.44189453125 -21.048583984375 -21.205322265625
13.53759765625 -25.042236328125 -2.4859619140625
1.8798828125 0.171142578125 1.9219970703125
9.622314453125 -30.9169921875 -19.640380859375
4.79638671875 -29.298583984375 -4.4293212890625
32.7861328125 -2.704833984375 4.5623779296875
1.4296875 -28.43115234375 -2.170654296875
29.103515625 -4.170654296875 5.0494384765625
3.2099609375 25.56103515625 23.877685546875
-15.915771484375 -13.18115234375 6.4404296875
-15.456298828125 35.026611328125 7.1080322265625
