-15.166259765625 21.9969482421875 16.647705078125
55.901611328125 2.1900634765625 -15.405517578125
76.95849609375 2.39697265625 -21.8123779296875
-9.478759765625 31.93408203125 -12.2769775390625
-38.218994140625 26.5167236328125 3.3699951171875
45.971923828125 4.127197265625 -19.54638671875
35.373291015625 -0.416259765625 -9.896240234375
63.724853515625 -0.01611328125 -10.877197265625
15.279541015625 18.50244140625 -14.1141357421875
-6.997802734375 22.2867431640625 16.2349853515625
-58.318115234375 24.6455078125 16.1640625
-6.22021484375 22.3834228515625 9.2447509765625
67.892822265625 4.186279296875 -24.7381591796875
-19.037841796875 23.1121826171875 9.4818115234375
-3.886962890625 34.0343017578125 -20.1676025390625
52.998046875 0.7413330078125 -10.224365234375
-39.465576171875 41.090087890625 -14.2559814453125
-57.77978515625 22.411865234375 12.5977783203125
-44.093994140625 7.123779296875 18.46875
-79.123046875 48.06787109375 -7.8077392578125
41.619873046875 0.0750732421875 -11.100830078125
-35.599609375 27.736572265625 -23.8935546875
-52.801025390625 4.447265625 21.2802734375
-54.8466796875 1.6270751953125 25.2900390625
2.4892578125 28.381103515625 -4.8114013671875
-66.087890625 45.9666748046875 -3.906494140625
11.80712890625 21.0545654296875 -7.184814453125
-17.685546875 29.9202880859375 -10.41455078125
-22.001220703125 26.1473388671875 0.5728759765625
-51.238037109375 49.16748046875 -17.10791015625
-52.8017578125 -1.9581298828125 35.070068359375
-40.675537109375 25.968994140625 -18.201904296875
-70.453857421875 45.3673095703125 -0.8941650390625
-45.02001953125 27.5911865234375 -0.6982421875
-24.9228515625 33.2408447265625 -20.090576171875
75.283935546875 -0.06298828125 -13.9090576171875
-37.414794921875 13.242919921875 17.3154296875
-15.727294921875 19.8692626953125 8.7467041015625
31.687744140625 1.1824951171875 -13.7225341796875
-11.267333984375 25.7802734375 5.2108154296875
-9.03125 35.1993408203125 -23.364501953125
-49.7080078125 20.020263671875 15.4891357421875
-29.69189453125 25.5426025390625 3.9764404296875
-25.003173828125 24.8861083984375 4.67578125
-33.578857421875 19.9949951171875 15.4012451171875
16.105712890625 19.432861328125 -18.20263671875
46.84228515625 6.8095703125 -27.4000244140625
-28.3544921875 31.6104736328125 -14.75244140625
-40.350341796875 2.9686279296875 23.867431640625
-47.54345703125 15.9564208984375 17.1370849609375
-39.095458984375 23.8717041015625 11.0767822265625
39.760986328125 7.6746826171875 -30.082275390625
-71.281005859375 47.83056640625 -9.2425537109375
-53.426025390625 48.3876953125 -14.1475830078125
-9.909423828125 16.713134765625 7.1512451171875
-29.5537109375 0.684326171875 28.8375244140625
-55.421875 34.249267578125 2.0404052734375
-52.682861328125 23.2548828125 9.7137451171875
-46.99658203125 0.2906494140625 29.2100830078125
-14.740234375 26.487060546875 -2.44873046875
-57.341796875 48.673583984375 -14.498779296875
-79.14892578125 45.3271484375 0.492919921875
-38.680419921875 19.6280517578125 15.778076171875
-63.0068359375 20.6497802734375 -0.688232421875
-49.521728515625 24.68896484375 -14.52099609375
-68.35791015625 36.412109375 25.62939453125
-42.064453125 1.62060546875 35.593017578125
-9.52783203125 27.96044921875 -1.322998046875
-58.666748046875 46.8621826171875 -8.653564453125
-45.03369140625 26.1168212890625 3.76708984375
62.0966796875 2.4571533203125 -17.914306640625
39.524169921875 3.76904296875 -23.7008056640625
-30.9296875 30.077392578125 -9.40625
-3.561279296875 23.08154296875 12.8863525390625
39.909423828125 1.0198974609375 -15.4876708984375
-37.3369140625 29.532958984375 -5.9996337890625
-1.730224609375 35.4744873046875 -25.1177978515625
-23.670654296875 30.4171142578125 -12.4271240234375
-10.864501953125 21.90087890625 17.9222412109375
-14.190185546875 35.2174072265625 -24.1666259765625
-40.234619140625 26.5406494140625 -23.197265625
-14.044921875 17.9913330078125 13.9674072265625
20.65576171875 15.3961181640625 -24.85400390625
-69.644775390625 13.874755859375 13.3111572265625
8.753662109375 30.11865234375 -20.963134765625
44.30615234375 5.63818359375 -2.8458251953125
-33.278564453125 2.9573974609375 22.98193359375
23.229248046875 10.1275634765625 -20.34521484375
-70.05078125 16.3099365234375 6.57177734375
31.734619140625 4.43994140625 -23.0933837890625
-5.21240234375 29.8275146484375 -7.073974609375
53.021240234375 3.2078857421875 -17.6947021484375
72.861328125 5.7239990234375 -30.755615234375
-39.142578125 -1.3209228515625 36.51611328125
21.278564453125 8.867919921875 -10.9036865234375
8.329345703125 27.0299072265625 -9.886962890625
81.479248046875 0.2041015625 -16.4178466796875
54.2734375 4.663330078125 -22.4427490234375
47.578369140625 -0.550537109375 -5.832275390625
-27.9658203125 27.548828125 -2.5684814453125
-55.29443359375 -2.53466796875 37.4990234375
60.006103515625 -0.3580322265625 -8.8214111328125
74.472412109375 1.433349609375 -18.2139892578125
-16.78955078125 33.9141845703125 -22.2073974609375
58.840576171875 2.0887451171875 -5.7958984375
-31.984375 7.9888916015625 18.1951904296875
47.651123046875 2.8726806640625 -15.205810546875
-36.523193359375 25.3018798828125 6.5804443359375
1.642822265625 29.5302734375 -8.0562744140625
-10.44189453125 20.683349609375 22.03271484375
-21.058349609375 35.0052490234375 -25.4146728515625
-39.947021484375 2.068115234375 27.503662109375
-35.188720703125 30.9339599609375 -11.3663330078125
42.25732421875 3.7216796875 -6.1846923828125
-55.785888671875 20.391357421875 -7.619384765625
-32.684814453125 24.984375 6.487548828125
-41.614501953125 28.543701171875 -1.8316650390625
-15.956298828125 31.18896484375 -13.6505126953125
37.996826171875 1.4625244140625 -0.715576171875
-6.471923828125 32.6295166015625 -15.2069091796875
-34.137451171875 0.1466064453125 31.7232666015625
-23.7021484375 27.0618896484375 -2.2652587890625
-20.70556640625 28.0228271484375 -5.9957275390625
68.687255859375 0.87255859375 -14.9287109375
-42.072998046875 19.2550048828125 15.7086181640625
-43.30615234375 13.4093017578125 17.382080078125
11.44482421875 22.8125 -10.281005859375
-49.102783203125 -1.5546875 36.8983154296875
-31.899169921875 17.5528564453125 17.0030517578125
25.44287109375 5.7264404296875 -15.73095703125
32.962890625 5.605712890625 -27.4573974609375
-9.4189453125 16.494384765625 14.0343017578125
-41.17138671875 30.253173828125 -7.1260986328125
-34.784423828125 28.6502685546875 -4.0291748046875
-32.611572265625 32.835693359375 -16.2158203125
58.413330078125 5.8798828125 -27.2606201171875
52.63916015625 6.487548828125 -27.5140380859375
-65.508056640625 16.554443359375 8.7408447265625
-65.189208984375 48.77392578125 -12.64794921875
9.512939453125 27.0380859375 -15.06787109375
-54.324951171875 18.04931640625 16.3585205078125
-6.810302734375 18.997802734375 8.935546875
58.816162109375 4.8072509765625 -24.125244140625
-59.971435546875 18.3780517578125 -2.453857421875
48.83349609375 1.2933349609375 -11.7568359375
-73.759765625 13.76123046875 11.1636962890625
-12.065185546875 30.3944091796875 -6.9080810546875
79.043212890625 4.56298828125 -28.939453125
18.323974609375 14.4219970703125 -14.0491943359375
-3.54248046875 25.103271484375 6.7633056640625
-44.950439453125 1.172119140625 31.588623046875
-47.433837890625 7.8463134765625 18.227783203125
-57.34423828125 20.6519775390625 15.6739501953125
-46.19580078125 29.8236083984375 -18.32666015625
-53.537109375 25.3232421875 5.8258056640625
-27.90771484375 33.7225341796875 -21.266357421875
28.61767578125 8.1798095703125 -29.052978515625
-64.543212890625 15.2366943359375 4.1688232421875
-43.6123046875 25.6273193359375 -19.506103515625
-1.284423828125 25.3707275390625 12.951416015625
-18.179443359375 23.9501953125 6.172119140625
42.052001953125 2.2412109375 -17.7742919921875
30.92919921875 2.876220703125 -17.141845703125
-66.118408203125 20.2396240234375 10.8563232421875
-71.0205078125 15.40283203125 15.8233642578125
-59.625 18.3721923828125 2.6663818359375
-54.65771484375 14.1602783203125 17.1800537109375
-34.66748046875 50.3033447265625 -16.6409912109375
1.652587890625 32.4281005859375 -17.9117431640625
72.392822265625 -0.2135009765625 -12.6595458984375
-76.118896484375 43.156494140625 6.2296142578125
-48.23681640625 3.54638671875 22.7532958984375
-46.737548828125 24.95703125 6.137451171875
41.77734375 0.83642578125 1.662353515625
28.1689453125 2.6650390625 -11.7401123046875
35.2734375 2.0799560546875 3.2445068359375
-46.565673828125 24.2200927734375 -15.4830322265625
19.85400390625 14.6312255859375 -20.777099609375
-30.693115234375 11.30029296875 17.6881103515625
-4.4345703125 21.4002685546875 18.2137451171875
-56.517333984375 -0.34619140625 31.2125244140625
-8.68701171875 26.273193359375 3.5521240234375
-12.6416015625 23.19189453125 6.4088134765625
5.451904296875 27.4969482421875 -4.5743408203125
-65.277099609375 39.450439453125 15.5894775390625
-59.526611328125 48.168212890625 -12.3697509765625
-69.158203125 44.025146484375 2.8114013671875
-78.704345703125 46.25048828125 -2.4228515625
-34.37060546875 27.2728271484375 0.0252685546875
-31.39013671875 26.489013671875 1.578857421875
-15.401611328125 16.560791015625 10.1768798828125
-13.479248046875 24.3675537109375 3.6190185546875
12.241943359375 25.8580322265625 -23.4300537109375
14.921875 17.5203857421875 -7.8994140625
47.671875 5.07958984375 -21.8897705078125
-41.177490234375 6.619873046875 19.1929931640625
-46.32421875 21.5548095703125 13.6466064453125
24.334228515625 10.5382080078125 -26.958984375
-22.36572265625 32.525634765625 -18.0904541015625
-2.23974609375 26.8839111328125 1.0174560546875
-53.322021484375 10.49267578125 18.028076171875
-3.064697265625 30.3243408203125 -9.1668701171875
-9.910888671875 33.98974609375 -20.5450439453125
79.873779296875 2.0528564453125 -21.068603515625
-17.282958984375 22.0897216796875 20.197021484375
71.60791015625 4.1387939453125 -25.6143798828125
65.8095703125 2.1500244140625 -18.0042724609375
-52.367431640625 2.4085693359375 23.7674560546875
-37.46875 0.0291748046875 32.9930419921875
-12.071044921875 33.0220947265625 -18.1051025390625
3.34326171875 29.9964599609375 -11.0174560546875
-51.70849609375 27.9168701171875 -12.6326904296875
-13.59765625 20.36181640625 6.67138671875
35.575927734375 6.650390625 -2.998779296875
-65.002685546875 17.3150634765625 1.6260986328125
-44.910400390625 24.9210205078125 -12.8173828125
-1.331787109375 33.1138916015625 -18.6260986328125
38.6611328125 -0.558837890625 -10.367431640625
69.53564453125 3.2708740234375 -22.4190673828125
-47.5869140625 23.4300537109375 8.8525390625
24.643798828125 4.051025390625 -8.928466796875
-50.33837890625 22.202880859375 -11.9959716796875
16.472412109375 20.3076171875 -23.560546875
27.40966796875 6.4149169921875 -21.875244140625
42.6552734375 4.504638671875 -20.2801513671875
38.43896484375 2.49560546875 -3.4564208984375
-44.59228515625 16.035400390625 17.1416015625
-73.513916015625 44.522705078125 2.501708984375
-51.217041015625 21.39599609375 -6.18310546875
71.5859375 1.802001953125 -18.5372314453125
-52.78515625 0.95849609375 27.2542724609375
-35.764404296875 4.549072265625 20.3824462890625
11.432861328125 23.9515380859375 -14.787353515625
-46.197265625 -1.7950439453125 36.8280029296875
-30.138671875 23.4305419921875 10.4903564453125
43.915283203125 0.7132568359375 -7.6456298828125
-39.488525390625 27.2293701171875 0.487548828125
76.967041015625 3.3056640625 -24.564697265625
-73.031982421875 47.0155029296875 -6.295166015625
31.72607421875 3.53466796875 -20.3516845703125
45.9072265625 1.483154296875 -12.5321044921875
-39.899658203125 29.342041015625 -4.71826171875
-44.6630859375 40.0235595703125 -9.601806640625
-17.7275390625 22.7476806640625 15.0792236328125
36.630126953125 2.067626953125 -17.757568359375
-55.2314453125 22.900146484375 10.9537353515625
-19.7998046875 32.24658203125 -16.8734130859375
-16.06103515625 22.6689453125 8.9302978515625
37.462646484375 3.1632080078125 -21.3016357421875
6.320068359375 30.861328125 -16.0751953125
-72.60546875 46.0201416015625 -3.4005126953125
14.947021484375 22.7645263671875 -24.8248291015625
-50.718994140625 0.135009765625 29.1790771484375
-32.897216796875 -0.741943359375 34.071533203125
33.3564453125 1.9761962890625 -16.0831298828125
56.708251953125 0.174560546875 -9.5279541015625
-21.60009765625 23.6644287109375 7.4385986328125
-65.22412109375 45.0718994140625 -1.43603515625
23.92138671875 7.6312255859375 -17.037353515625
-61.283447265625 46.80419921875 -7.759765625
10.31787109375 27.878173828125 -20.505126953125
8.81005859375 31.5933837890625 -23.290283203125
81.088623046875 2.574951171875 -23.4849853515625
-27.0634765625 32.7125244140625 -18.441650390625
-9.859130859375 17.212890625 9.8580322265625
-74.09716796875 20.0892333984375 10.868408203125
46.85546875 6.0565185546875 -24.6219482421875
16.85546875 19.024169921875 -20.8243408203125
-48.845947265625 25.2747802734375 3.615966796875
-24.960205078125 29.44921875 -9.144287109375
-57.997314453125 23.7156982421875 -6.1024169921875
8.28759765625 24.818359375 -4.2589111328125
13.020751953125 23.53271484375 -18.7237548828125
-4.372314453125 28.0045166015625 -1.7880859375
-68.879150390625 18.505126953125 5.3262939453125
-9.51025390625 29.20556640625 -4.553955078125
45.96435546875 4.58251953125 -0.106201171875
39.27978515625 3.7305908203125 -7.42431640625
-3.8984375 32.8212890625 -16.4937744140625
2.971923828125 34.1412353515625 -22.37451171875
42.033447265625 4.26171875 -24.8824462890625
-48.341552734375 13.0250244140625 17.3143310546875
-32.2216796875 28.8411865234375 -5.310546875
-29.497802734375 5.677734375 21.9254150390625
-67.9794921875 14.715087890625 11.34765625
17.919189453125 13.195556640625 -9.19189453125
-28.82763671875 26.679931640625 0.2974853515625
53.745849609375 -0.567138671875 -7.9776611328125
-56.24462890625 19.6505126953125 -2.650634765625
-21.94482421875 31.5836181640625 -14.8172607421875
13.7685546875 20.620361328125 -13.2822265625
-42.48486328125 26.134765625 4.622314453125
43.523681640625 7.056640625 -27.7388916015625
-42.07373046875 24.4898681640625 9.4871826171875
-31.20751953125 1.869140625 25.70654296875
62.525146484375 4.110595703125 -23.03564453125
-31.638427734375 0.332763671875 30.4736328125
-40.359619140625 13.0052490234375 17.272705078125
32.930908203125 0.458251953125 -11.3731689453125
-33.982421875 23.0150146484375 11.7286376953125
-67.03662109375 37.8121337890625 21.030029296875
-67.8369140625 45.42529296875 -1.7879638671875
-50.98876953125 21.4488525390625 13.6475830078125
-34.75 28.133544921875 -26.378662109375
20.964111328125 11.0274658203125 -14.2833251953125
-38.680908203125 16.9754638671875 16.900146484375
-67.030517578125 14.70166015625 4.9227294921875
-37.837158203125 9.529052734375 17.72900390625
58.796630859375 2.7301025390625 -17.83447265625
74.919189453125 5.0340576171875 -29.2327880859375
68.32373046875 6.099365234375 -30.645751953125
47.6962890625 7.6759033203125 -29.7532958984375
-39.956787109375 1.02099609375 30.6749267578125
-34.120361328125 1.97900390625 26.1734619140625
61.157470703125 0.481201171875 -13.686767578125
-32.7666015625 15.085693359375 17.2960205078125
-69.437744140625 17.4639892578125 15.43115234375
-78.69677734375 47.0726318359375 -4.9130859375
-19.47119140625 22.1038818359375 13.1898193359375
36.10205078125 3.6845703125 -2.347900390625
66.248779296875 4.9718017578125 -26.6640625
76.9755859375 4.21435546875 -27.31689453125
-7.254150390625 17.6669921875 12.5516357421875
-2.166259765625 34.701171875 -22.658203125
-0.910400390625 31.4949951171875 -13.30078125
-6.95263671875 27.7803955078125 -0.943359375
37.49755859375 4.99853515625 -26.3660888671875
-43.341796875 25.069091796875 7.009033203125
-62.10986328125 17.2171630859375 3.721923828125
-26.71923828125 23.95361328125 7.9688720703125
-42.350341796875 27.8966064453125 -22.5244140625
-57.347900390625 2.2982177734375 25.4686279296875
-20.68212890625 30.203125 -12.0621337890625
16.831787109375 16.5140380859375 -13.2218017578125
1.2373046875 31.99169921875 -15.3935546875
-19.4453125 25.5328369140625 1.730712890625
27.7763671875 4.7735595703125 -18.012939453125
23.537353515625 6.3104248046875 -11.416015625
-30.27734375 51.4560546875 -21.33447265625
-36.95849609375 24.2320556640625 9.399658203125
55.693359375 3.7137451171875 -6.286376953125
-52.25341796875 20.2308349609375 15.55078125
-36.13037109375 19.8782958984375 15.38720703125
10.271240234375 22.9281005859375 -5.5130615234375
-76.51416015625 47.440673828125 -6.6258544921875
-45.757080078125 1.6160888671875 27.4036865234375
-57.813232421875 5.510986328125 21.9903564453125
17.937255859375 16.4603271484375 -19.5938720703125
44.666748046875 5.9195556640625 -5.333984375
-42.842041015625 3.14990234375 23.4925537109375
18.745361328125 17.489501953125 -24.4815673828125
-23.208984375 33.9052734375 -22.5714111328125
44.665771484375 3.1168212890625 -17.636474609375
-6.1044921875 26.12451171875 4.3763427734375
9.883544921875 24.63134765625 -9.4920654296875
-53.27978515625 20.3748779296875 -7.2177734375
53.853515625 3.9185791015625 -20.07373046875
77.762939453125 0.1217041015625 -15.1484375
49.238525390625 0.480712890625 -9.408935546875
21.825927734375 15.5159912109375 -28.6148681640625
42.921142578125 1.081298828125 -13.0023193359375
-15.721435546875 19.156982421875 12.500732421875
-7.812744140625 34.1129150390625 -25.273681640625
30.4990234375 5.93896484375 -27.789306640625
66.18701171875 1.052978515625 -15.2908935546875
-6.45166015625 34.7860107421875 -21.7381591796875
-6.91796875 30.7779541015625 -9.4818115234375
-7.357666015625 29.600341796875 -5.797607421875
-36.618408203125 1.9237060546875 27.026611328125
26.255126953125 8.9576416015625 -27.2421875
-21.179443359375 22.7205810546875 10.716796875
-14.646240234375 33.166748046875 -18.9161376953125
-49.521728515625 50.884765625 -17.7120361328125
-26.67236328125 28.9193115234375 -7.0706787109375
-54.88330078125 5.323974609375 20.2193603515625
7.163330078125 31.666015625 -19.8223876953125
-13.87353515625 25.872314453125 1.326904296875
39.114501953125 2.0174560546875 -17.7890625
-71.766845703125 16.5635986328125 8.35107421875
56.74609375 4.198974609375 -21.71630859375
55.47802734375 1.055908203125 -11.85693359375
53.472900390625 7.3280029296875 -30.2862548828125
50.1640625 6.6922607421875 -27.4541015625
62.9609375 6.5430908203125 -30.515869140625
22.422119140625 9.59716796875 -17.5018310546875
-18.062744140625 33.7186279296875 -19.6480712890625
-73.091064453125 43.1156005859375 6.6436767578125
-64.421142578125 37.7330322265625 20.5513916015625
-57.918701171875 10.160888671875 19.2596435546875
-46.32470703125 23.1497802734375 10.957763671875
-38.126953125 26.9278564453125 -24.42431640625
-14.79931640625 20.68408203125 14.5899658203125
-43.26611328125 2.2686767578125 26.275390625
47.63671875 3.4967041015625 -17.5931396484375
-25.71826171875 37.05419921875 -23.3126220703125
23.243896484375 11.6934814453125 -25.0875244140625
-29.730712890625 21.55859375 14.4315185546875
-45.751708984375 4.0950927734375 22.4522705078125
-13.4150390625 33.2271728515625 -25.3572998046875
36.721435546875 6.6529541015625 -6.3958740234375
-18.13525390625 27.907958984375 -4.7403564453125
-9.077880859375 15.1800537109375 11.562255859375
-12.06884765625 31.6419677734375 -12.30712890625
-26.2548828125 27.944580078125 -4.2357177734375
-18.99462890625 28.41845703125 -7.6629638671875
-28.788330078125 30.8404541015625 -12.30322265625
-14.666015625 30.1392822265625 -8.6693115234375
-51.156005859375 5.7716064453125 19.8853759765625
76.951171875 1.6180419921875 -19.453369140625
49.71728515625 3.0914306640625 -16.435302734375
-54.5517578125 22.2144775390625 -9.8319091796875
-47.877197265625 28.1392822265625 -16.47265625
-29.360595703125 16.8836669921875 17.26904296875
-12.81640625 17.754150390625 9.562255859375
-47.162353515625 28.5997314453125 -0.47802734375
43.220458984375 3.568115234375 -2.4215087890625
6.28955078125 28.675048828125 -9.99169921875
14.1640625 21.5574951171875 -17.805908203125
-40.6572265625 28.4205322265625 -24.5748291015625
-45.828857421875 13.4576416015625 17.4051513671875
-64.330810546875 47.3306884765625 -8.5164794921875
-71.332763671875 44.61669921875 1.618408203125
-64.338623046875 46.508056640625 -6.02490234375
-68.687744140625 47.691162109375 -8.4110107421875
13.401611328125 24.0390625 -22.4725341796875
-59.5771484375 18.0355224609375 0.0311279296875
74.48095703125 2.342041015625 -20.9661865234375
72.852783203125 4.8153076171875 -28.0032958984375
-48.647705078125 0.794921875 27.6290283203125
14.86962890625 15.8424072265625 -4.3812255859375
-53.636474609375 -0.7747802734375 33.24072265625
34.601318359375 4.95263671875 -25.930908203125
-34.263916015625 42.073486328125 -21.962890625
35.025634765625 6.3408203125 -30.248046875
-82.17529296875 47.908935546875 -6.4888916015625
-71.318359375 13.06298828125 15.7088623046875
-5.717041015625 23.1964111328125 12.0472412109375
64.078369140625 3.3634033203125 -5.9970703125
3.810791015625 32.1834716796875 -16.680419921875
-10.3291015625 32.6788330078125 -14.2972412109375
-17.290283203125 26.8970947265625 -1.913330078125
-4.4052734375 24.500244140625 8.8250732421875
19.40234375 10.9893798828125 -9.6328125
-31.838134765625 24.24267578125 8.499267578125
-26.224609375 31.1656494140625 -13.9910888671875
-7.55029296875 19.9500732421875 14.8209228515625
62.539794921875 5.66845703125 -27.753662109375
21.27099609375 8.0830078125 -8.5264892578125
-16.047119140625 24.145263671875 4.458984375
-30.32568359375 6.535400390625 19.5572509765625
-51.831787109375 22.187255859375 11.644287109375
-32.630615234375 30.75537109375 -10.9908447265625
-48.946044921875 36.287353515625 -5.9046630859375
21.704833984375 11.4227294921875 -19.2623291015625
-63.78271484375 18.704833984375 0.199462890625
-52.870849609375 22.766845703125 -11.443603515625
-43.69970703125 10.3045654296875 17.5096435546875
64.139404296875 2.781005859375 -19.9578857421875
-42.782470703125 25.5501708984375 -17.4053955078125
-51.699951171875 13.142822265625 17.3577880859375
63.768798828125 4.6573486328125 -25.031494140625
13.339599609375 18.691650390625 -6.80126953125
24.32177734375 9.2366943359375 -23.01708984375
-15.148681640625 27.5264892578125 -4.4058837890625
-57.9287109375 21.465087890625 -6.11572265625
-60.458251953125 20.7481689453125 -3.2515869140625
-54.92236328125 7.548095703125 18.6173095703125
42.23291015625 7.47021484375 -30.14208984375
-11.09033203125 18.6658935546875 8.4534912109375
6.682373046875 27.0950927734375 -6.398681640625
-35.772216796875 3.26953125 22.210693359375
18.437255859375 19.572998046875 -27.07763671875
-68.260986328125 46.6953125 -5.5147705078125
-62.23095703125 38.7867431640625 16.7613525390625
66.197509765625 -0.48046875 -10.1507568359375
74.90087890625 3.0867919921875 -23.335205078125
82.722900390625 0.750732421875 -18.4136962890625
-64.760009765625 48.05224609375 -10.5821533203125
70.76708984375 2.5194091796875 -20.483154296875
70.32763671875 -0.302490234375 -11.8233642578125
53.455810546875 5.510498046875 -24.78173828125
52.20849609375 4.5743408203125 -21.6064453125
69.5478515625 4.5689697265625 -26.3507080078125
-12.65087890625 20.5987548828125 15.8720703125
-7.76611328125 17.0540771484375 7.6455078125
-33.685546875 4.114990234375 21.12548828125
-39.8251953125 26.2342529296875 -20.2872314453125
-56.76318359375 14.0694580078125 18.03271484375
8.671142578125 23.615966796875 -2.3367919921875
-34.75537109375 31.737060546875 -13.378173828125
-33.64892578125 9.3411865234375 17.66552734375
42.890380859375 3.855712890625 -22.8897705078125
32.544677734375 4.864013671875 -25.0980224609375
34.661376953125 4.1478271484375 -21.5147705078125
-12.080322265625 34.2314453125 -23.921630859375
-18.919677734375 34.6282958984375 -23.7838134765625
-9.55029296875 26.8184814453125 1.0562744140625
-7.3818359375 27.03955078125 1.958251953125
10.652099609375 22.9031982421875 -7.676513671875
-46.68603515625 30.013427734375 -9.7130126953125
-11.63037109375 31.032958984375 -8.95947265625
-8.7236328125 21.0806884765625 20.3583984375
-51.548095703125 -0.8876953125 31.4869384765625
19.822021484375 12.6341552734375 -15.2392578125
45.602783203125 0.365478515625 -6.0504150390625
58.7880859375 1.8214111328125 -15.082275390625
-3.073974609375 30.9317626953125 -12.0860595703125
-74.39306640625 43.772216796875 5.0142822265625
-58.224609375 47.5115966796875 -10.7403564453125
-63.442626953125 49.041015625 -13.9359130859375
-59.08056640625 49.22900390625 -15.702392578125
-39.093017578125 7.20849609375 18.897216796875
-12.12548828125 27.2357177734375 -0.5804443359375
-47.850341796875 -3.0811767578125 38.6314697265625
-76.541259765625 44.5628662109375 2.08984375
-43.775390625 21.2100830078125 13.989990234375
-36.501708984375 27.58349609375 -0.32958984375
-24.14013671875 25.8892822265625 1.4033203125
-48.4140625 17.9139404296875 16.732421875
-49.921630859375 21.345458984375 -10.0362548828125
-10.48779296875 23.511474609375 6.464111328125
16.0302734375 15.37646484375 -7.473876953125
-44.4658203125 24.801025390625 -16.2479248046875
37.107666015625 -0.173828125 -8.60888671875
-72.630859375 45.6846923828125 -1.2567138671875
-51.82421875 25.2532958984375 4.4984130859375
-41.197265625 40.8251953125 -12.9791259765625
-51.20556640625 9.078369140625 18.1104736328125
-9.90771484375 33.1148681640625 -16.8160400390625
-55.39111328125 9.872314453125 17.88916015625
-50.5595703125 22.9454345703125 10.0672607421875
11.83642578125 22.951904296875 -12.4039306640625
-36.859130859375 27.6817626953125 -26.006103515625
29.6640625 1.2718505859375 -12.4390869140625
28.214111328125 7.462158203125 -26.2689208984375
11.451904296875 24.783203125 -16.778076171875
-15.5712890625 22.186767578125 18.8914794921875
9.911376953125 27.576171875 -18.4110107421875
1.195556640625 27.5439453125 -1.9229736328125
4.251953125 33.495849609375 -20.7728271484375
-2.650390625 28.8062744140625 -4.68701171875
-8.71484375 22.024169921875 17.5009765625
-3.567626953125 22.40771484375 14.9273681640625
5.05126953125 27.35986328125 -2.4244384765625
-26.7099609375 24.790283203125 5.9720458984375
-22.86572265625 24.772705078125 5.5079345703125
-40.77685546875 26.5621337890625 3.3970947265625
-20.29541015625 26.2427978515625 -0.721923828125
-30.947265625 28.198486328125 -3.715576171875
-32.251953125 25.6201171875 4.44482421875
-36.086669921875 26.3402099609375 3.318359375
-30.056396484375 32.1541748046875 -15.9305419921875
-58.33544921875 24.3052978515625 18.275634765625
-47.88818359375 10.651123046875 17.611083984375
-39.93994140625 24.1168212890625 8.956787109375
-43.737060546875 28.0216064453125 -2.35302734375
-45.026123046875 26.9210205078125 1.3314208984375
15.692626953125 18.9677734375 -16.158935546875
80.250244140625 1.2152099609375 -19.14013671875
-5.186767578125 33.2979736328125 -18.124755859375
-13.40478515625 28.7568359375 -5.912353515625
41.57373046875 -0.8785400390625 -9.20166015625
-45.875732421875 28.8638916015625 -2.168212890625
-66.69482421875 14.6580810546875 9.612548828125
41.836669921875 3.1036376953125 -4.19873046875
11.808837890625 20.017822265625 -3.517822265625
44.147705078125 3.36376953125 0.4954833984375
-71.23046875 12.550048828125 12.5869140625
-39.038330078125 29.74267578125 -7.24169921875
-71.54931640625 20.513671875 8.358642578125
-68.587890625 21.1986083984375 5.47314453125
-47.236083984375 37.709716796875 -7.3927001953125
-44.5029296875 5.5341796875 19.8006591796875
-29.451416015625 9.6568603515625 18.1534423828125
53.837646484375 2.23095703125 -14.96240234375
67.05810546875 3.2159423828125 -21.57275390625
55.939453125 6.2144775390625 -27.5938720703125
60.424560546875 0.2568359375 -10.7972412109375
62.0673828125 -0.6585693359375 -8.4781494140625
65.8291015625 4.22705078125 -24.2950439453125
-43.220947265625 30.6446533203125 -21.6280517578125
29.2275390625 0.2469482421875 -9.7169189453125
35.391357421875 1.5230712890625 -15.7698974609375
-55.21484375 20.015869140625 15.9510498046875
-47.81787109375 1.6890869140625 25.712158203125
30.511962890625 2.2633056640625 -15.1724853515625
38.464599609375 3.302734375 -5.3988037109375
34.968505859375 0.26416015625 -11.84423828125
55.471435546875 2.71875 -17.3897705078125
-13.01708984375 21.881591796875 17.488525390625
-35.7431640625 9.5145263671875 17.7161865234375
-41.59130859375 3.725830078125 21.9166259765625
-34.84716796875 21.3231201171875 14.404541015625
-9.64990234375 20.546630859375 16.2830810546875
58.398681640625 6.7628173828125 -30.4310302734375
-29.547607421875 1.3387451171875 26.85546875
39.53173828125 0.7144775390625 -13.46142578125
-66.780517578125 19.154052734375 3.3079833984375
46.6083984375 -1.0384521484375 -7.6002197265625
-64.613037109375 16.0198974609375 6.4749755859375
74.46630859375 0.7841796875 -16.248046875
76.572998046875 5.287109375 -30.4522705078125
65.378662109375 0.23681640625 -12.0966796875
51.3955078125 5.9407958984375 -25.5181884765625
57.94091796875 -0.4471435546875 -7.9852294921875
51.77880859375 2.791015625 -16.092041015625
71.189453125 3.5238037109375 -23.6385498046875
-50.29736328125 2.392333984375 23.75634765625
61.6650390625 2.985595703125 -19.89794921875
-47.007568359375 -1.299560546875 33.516845703125
-54.85888671875 0.3231201171875 29.2388916015625
36.225341796875 2.748046875 -19.7054443359375
44.71875 4.593505859375 -21.11572265625
12.656494140625 24.890380859375 -20.6158447265625
-43.761962890625 17.8538818359375 16.69580078125
-57.886474609375 8.5262451171875 20.5841064453125
-63.283203125 15.79052734375 2.1466064453125
-55.968017578125 15.8753662109375 17.591064453125
9.10546875 26.7352294921875 -12.968017578125
26.559814453125 3.759033203125 -13.60498046875
-54.185791015625 12.0721435546875 17.1158447265625
6.68505859375 26.320068359375 -3.5142822265625
-47.438720703125 23.54736328125 -10.0665283203125
-38.677978515625 21.4755859375 14.4595947265625
-36.11474609375 23.2222900390625 12.2236328125
-50.047607421875 14.5811767578125 17.2578125
-50.34228515625 7.3262939453125 18.544189453125
-8.642578125 30.9879150390625 -10.727294921875
6.33642578125 32.6112060546875 -21.374755859375
-72.955810546875 14.857421875 9.6929931640625
-18.54296875 30.3280029296875 -12.48974609375
24.004150390625 11.8798828125 -28.3975830078125
-31.609619140625 3.368408203125 21.7911376953125
-34.769287109375 30.2607421875 -8.9068603515625
-36.44677734375 28.098876953125 -22.126708984375
-7.329345703125 33.9801025390625 -20.14208984375
-50.55078125 26.013916015625 2.9158935546875
15.695068359375 20.5264892578125 -21.3992919921875
-38.675048828125 23.00048828125 13.0609130859375
14.521240234375 17.215576171875 -5.8167724609375
-57.820556640625 21.7626953125 17.24169921875
57.4501953125 3.9388427734375 -5.408203125
-12.836669921875 16.125244140625 13.966796875
-55.6845703125 2.6829833984375 23.84765625
-15.5009765625 32.363037109375 -15.16943359375
-6.613525390625 21.796875 14.364501953125
-7.470947265625 23.6578369140625 7.348876953125
-43.301513671875 -0.5362548828125 36.3052978515625
-9.33154296875 18.3172607421875 14.89013671875
-36.98974609375 15.8917236328125 17.07177734375
35.58984375 0.7474365234375 4.6461181640625
-42.5009765625 23.1937255859375 11.381103515625
7.9404296875 28.8759765625 -14.2899169921875
-50.357666015625 21.2060546875 -7.9320068359375
-44.140625 -1.252685546875 38.7039794921875
-52.98388671875 49.037353515625 -16.2349853515625
-63.554931640625 37.1124267578125 22.19140625
-67.481201171875 36.888427734375 23.947265625
-68.77685546875 38.2305908203125 20.24169921875
-76.553466796875 45.8719482421875 -0.74658203125
-73.020263671875 48.248779296875 -10.0303955078125
4.64453125 29.6865234375 -9.353515625
-41.221435546875 -0.1361083984375 35.546630859375
-38.23291015625 25.0404052734375 7.8411865234375
17.56201171875 12.97412109375 -5.8309326171875
-25.002685546875 24.2061767578125 8.8856201171875
-34.326416015625 29.0518798828125 -24.5380859375
-26.70361328125 25.4615478515625 3.9390869140625
-25.009521484375 24.215087890625 6.708251953125
-43.192626953125 26.7781982421875 -21.0086669921875
-31.7890625 29.4442138671875 -7.7916259765625
-10.753173828125 34.902587890625 -22.53515625
-40.37744140625 20.19970703125 15.04736328125
-51.5283203125 1.1978759765625 25.1702880859375
-4.3974609375 26.085693359375 3.4835205078125
12.2109375 21.358642578125 -9.2767333984375
-70.789306640625 12.854248046875 10.5146484375
5.084228515625 30.8641357421875 -13.0377197265625
-4.33544921875 31.9132080078125 -13.6259765625
0.7734375 28.2532958984375 -3.95361328125
-12.58349609375 20.8604736328125 22.0845947265625
2.1103515625 33.6729736328125 -20.720947265625
4.204833984375 28.5089111328125 -5.6693115234375
-1.31591796875 33.9564208984375 -20.637939453125
1.261474609375 34.552490234375 -23.1494140625
-10.383056640625 29.312744140625 -6.2628173828125
-10.782958984375 31.1650390625 -10.675537109375
-13.873291015625 26.3779296875 -0.7418212890625
-13.011962890625 27.1134033203125 -3.2039794921875
-70.985595703125 18.0179443359375 7.3787841796875
35.65966796875 2.64892578125 0.398193359375
-34.814697265625 25.42919921875 5.7261962890625
-28.765625 33.2562255859375 -19.6197509765625
-32.6962890625 23.7764892578125 10.1458740234375
-37.361083984375 26.98291015625 1.723388671875
-27.945556640625 29.6962890625 -9.072021484375
-38.2265625 25.71142578125 5.808837890625
-17.773193359375 22.138916015625 11.00390625
-9.55078125 25.5357666015625 6.020751953125
-57.54931640625 33.1744384765625 3.14697265625
26.990234375 5.670654296875 -19.508056640625
37.09912109375 -0.235595703125 3.1500244140625
-17.744140625 24.854736328125 3.315673828125
-11.896484375 20.4886474609375 5.82080078125
-22.866943359375 25.1123046875 3.40478515625
42.7177734375 2.4571533203125 -0.9591064453125
-30.1904296875 18.5245361328125 16.7867431640625
-66.404052734375 17.3553466796875 10.213623046875
22.053466796875 8.6929931640625 -12.6279296875
-13.73974609375 15.2413330078125 11.6014404296875
-40.3779296875 21.88427734375 13.6895751953125
-69.5546875 14.01708984375 8.203125
20.987548828125 13.516845703125 -21.822998046875
-61.209228515625 17.1800537109375 -0.5601806640625
-41.58935546875 5.005615234375 20.0885009765625
-53.5234375 23.6953125 8.0784912109375
-53.6201171875 3.36962890625 22.7283935546875
-38.68017578125 15.0902099609375 17.3248291015625
-40.3759765625 23.0794677734375 12.2154541015625
-11.499267578125 17.5133056640625 14.71533203125
-55.287109375 -1.7525634765625 35.1302490234375
40.50146484375 1.411865234375 -0.7430419921875
12.186767578125 19.99609375 -5.676513671875
-56.20166015625 19.443359375 -5.6749267578125
-39.514404296875 3.5791015625 22.30126953125
-47.594970703125 20.766845703125 14.7796630859375
45.169189453125 6.5308837890625 -26.5999755859375
44.000732421875 4.33837890625 -6.494873046875
-57.90625 18.7469482421875 -1.5416259765625
42.226806640625 0.8011474609375 -8.453369140625
-42.853271484375 8.703369140625 17.98388671875
10.591552734375 21.1778564453125 -4.5687255859375
-48.6943359375 22.6019287109375 -8.9560546875
45.074951171875 7.2296142578125 0.8885498046875
-32.717529296875 21.3115234375 14.3907470703125
37.526611328125 3.0909423828125 -7.539306640625
-38.554443359375 26.46435546875 -22.380615234375
-50.73681640625 -2.78125 36.993896484375
-43.2841796875 1.2962646484375 30.7554931640625
-38.28564453125 1.668701171875 28.2562255859375
-34.9755859375 -0.4390869140625 33.7254638671875
-38.295654296875 0.62158203125 31.427490234375
-34.9619140625 1.000732421875 29.3648681640625
-11.159912109375 17.541748046875 6.0438232421875
-33.8974609375 32.203369140625 -15.024658203125
-56.032470703125 18.5440673828125 16.916748046875
-34.879638671875 15.098876953125 17.30908203125
-37.437744140625 2.989501953125 23.004638671875
-48.242919921875 23.045654296875 -13.5576171875
-55.6826171875 0.9132080078125 27.6793212890625
-53.639892578125 -2.932373046875 38.2484130859375
60.419189453125 2.1795654296875 -17.116455078125
-40.23974609375 30.1380615234375 -25.1461181640625
24.327880859375 8.3519287109375 -19.8358154296875
-11.927490234375 18.291015625 11.4139404296875
15.6640625 17.217529296875 -11.3778076171875
-50.31689453125 -1.2034912109375 33.118896484375
-54.73388671875 47.771728515625 -12.48583984375
-36.99755859375 11.182861328125 17.6885986328125
-75.23876953125 44.043701171875 3.30322265625
-42.029296875 11.0936279296875 17.2589111328125
79.053466796875 2.6405029296875 -22.6217041015625
67.4423828125 0.196044921875 -12.539794921875
58.393798828125 3.8028564453125 -20.9698486328125
46.025390625 5.60546875 -23.029296875
67.49365234375 5.6484375 -29.0531005859375
64.544921875 -0.6036376953125 -9.324462890625
62.90478515625 0.5714111328125 -12.429931640625
67.86962890625 1.7197265625 -17.267822265625
66.260986328125 6.27001953125 -30.5958251953125
69.507568359375 0.2850341796875 -13.3759765625
76.5302734375 0.743408203125 -16.691162109375
42.035400390625 2.2744140625 -7.3172607421875
21.0185546875 15.3795166015625 -26.95556640625
-47.838623046875 25.4068603515625 -16.10791015625
43.262451171875 -0.31982421875 -10.356689453125
-80.45654296875 46.7066650390625 -2.7618408203125
-39.910888671875 28.1341552734375 -1.0599365234375
-54.807861328125 24.69677734375 7.0015869140625
-13.7880859375 31.9859619140625 -13.9578857421875
-15.892333984375 35.797119140625 -24.9129638671875
-51.240234375 50.068359375 -18.710205078125
-40.356201171875 25.690185546875 5.38330078125
22.415283203125 7.4039306640625 -10.354248046875
-49.7255859375 27.839599609375 1.9884033203125
-15.51611328125 30.748291015625 -10.27880859375
-19.764892578125 34.6669921875 -22.0506591796875
59.601806640625 3.0264892578125 -19.4549560546875
-31.026123046875 19.97802734375 15.8206787109375
-51.234375 25.5770263671875 -13.0662841796875
14.12841796875 20.3026123046875 -15.0504150390625
-43.77880859375 22.5677490234375 12.55517578125
-76.95068359375 46.0684814453125 -2.9139404296875
-39.863037109375 33.234130859375 -16.5059814453125
-19.427490234375 23.3553466796875 14.788818359375
-26.613037109375 34.692626953125 -22.40478515625
-42.019287109375 3.0255126953125 25.1754150390625
17.617919921875 18.9100341796875 -23.8087158203125
25.841552734375 7.32958984375 -21.6990966796875
-3.046875 32.2113037109375 -14.8817138671875
-4.823486328125 25.6138916015625 5.56982421875
-3.931396484375 29.31689453125 -5.8804931640625
-0.44921875 34.9638671875 -23.92431640625
-52.62646484375 17.4515380859375 16.6446533203125
-18.04248046875 34.7626953125 -21.1922607421875
-14.184326171875 34.8822021484375 -22.0726318359375
-68.774169921875 16.2803955078125 5.2744140625
-35.218994140625 27.7137451171875 -1.613525390625
13.012451171875 21.4337158203125 -11.841064453125
-15.494873046875 33.909912109375 -20.93212890625
2.074462890625 30.8094482421875 -12.587646484375
-25.420166015625 25.7584228515625 2.6883544921875
-30.07177734375 30.543701171875 -11.0528564453125
-27.071044921875 31.9072265625 -16.0028076171875
-44.5947265625 29.3275146484375 -3.38525390625
-44.617919921875 22.813232421875 10.4378662109375
-53.11083984375 21.7581787109375 13.294189453125
18.707275390625 14.8292236328125 -16.9375
-21.929443359375 34.033935546875 -23.8497314453125
28.908447265625 3.4842529296875 -17.4273681640625
-59.17724609375 20.55419921875 -4.5802001953125
-56.509521484375 21.905517578125 13.78125
-57.389892578125 20.8638916015625 18.775146484375
-46.177001953125 24.4638671875 -11.611572265625
18.272705078125 11.7335205078125 -6.93408203125
-55.59765625 48.66650390625 -14.956298828125
-65.720458984375 38.663818359375 18.091552734375
-63.027587890625 46.811279296875 -7.3023681640625
-62.57763671875 48.283447265625 -11.8807373046875
-69.317138671875 15.6031494140625 13.70654296875
-61.381103515625 22.8006591796875 -2.404541015625
-64.306884765625 21.1693115234375 0.712646484375
-22.837890625 27.963134765625 -4.6920166015625
-73.927734375 46.8896484375 -4.547119140625
-30.511962890625 29.1026611328125 -6.5712890625
-61.735107421875 20.7801513671875 -1.9539794921875
-16.483154296875 21.4844970703125 14.7825927734375
11.89990234375 27.283447265625 -24.4666748046875
-45.468994140625 24.7802734375 7.39501953125
-68.565185546875 17.4393310546875 13.692626953125
-1.26025390625 26.2467041015625 11.386962890625
-17.288818359375 22.670654296875 16.81494140625
-19.8798828125 24.3912353515625 5.84228515625
-48.65869140625 21.6375732421875 -11.2667236328125
-50.775390625 23.6107177734375 -13.006103515625
-42.0751953125 20.7716064453125 14.3162841796875
-6.8486328125 17.6771240234375 10.8128662109375
-12.011962890625 16.9462890625 8.07958984375
-51.55615234375 3.665283203125 22.7947998046875
-78.294189453125 44.881591796875 2.167236328125
-12.973876953125 25.9537353515625 5.6956787109375
-10.214111328125 18.6107177734375 11.0416259765625
62.36279296875 3.058349609375 -5.6239013671875
-35.654296875 26.809814453125 1.2413330078125
-70.85986328125 47.4217529296875 -7.5604248046875
1.64013671875 30.171142578125 -10.5367431640625
33.801025390625 0.203857421875 -9.34375
-74.7939453125 47.5101318359375 -6.18701171875
23.205322265625 10.5955810546875 -22.7706298828125
41.81494140625 6.8560791015625 -28.1688232421875
-5.2822265625 22.4146728515625 15.3770751953125
-1.35009765625 30.3173828125 -9.6165771484375
61.4482421875 0.19677734375 -15.4119873046875
-19.8466796875 23.3497314453125 16.5460205078125
-3.93896484375 28.50830078125 -3.4312744140625
-6.150146484375 21.2724609375 19.0716552734375
-1.783447265625 29.813720703125 -7.973388671875
-5.20361328125 30.77099609375 -9.931396484375
-34.508544921875 5.6484375 19.7880859375
-5.283935546875 23.6998291015625 10.405029296875
57.794921875 1.1536865234375 -7.241455078125
7.966552734375 30.521240234375 -18.7369384765625
-41.524658203125 25.3756103515625 -16.1729736328125
34.611328125 2.416015625 -17.259765625
-19.773681640625 33.7255859375 -19.1993408203125
-43.773193359375 19.722412109375 15.825439453125
-23.2177734375 32.9654541015625 -19.725341796875
-23.63037109375 34.4775390625 -24.1873779296875
-47.412353515625 -0.6368408203125 31.1146240234375
-36.91552734375 28.9608154296875 -4.384033203125
-41.62060546875 27.87255859375 0.2008056640625
-23.70849609375 26.3907470703125 -0.23291015625
-33.522705078125 26.6654052734375 1.6304931640625
-34.821044921875 24.758056640625 7.758544921875
-54.595458984375 23.9764404296875 -9.924072265625
38.383544921875 6.041748046875 -28.267822265625
-17.71142578125 22.4986572265625 18.53515625
37.557373046875 0.6904296875 1.234619140625
44.56396484375 0.5565185546875 -11.8653564453125
-60.56640625 32.341796875 6.4949951171875
39.255126953125 1.12353515625 0.471435546875
-18.495361328125 33.2159423828125 -18.00830078125
-9.102294921875 28.296630859375 -2.99853515625
-49.291259765625 21.1746826171875 14.01123046875
43.664306640625 4.474365234375 -4.7752685546875
50.975830078125 5.196044921875 -23.149169921875
68.31396484375 5.0609130859375 -27.5003662109375
55.467041015625 -0.112548828125 -8.3184814453125
54.70556640625 6.706298828125 -28.7435302734375
83.964111328125 1.037841796875 -19.6231689453125
57.55419921875 2.313232421875 -16.2318115234375
72.841796875 3.64697265625 -24.46484375
61.305908203125 6.1602783203125 -28.9031982421875
10.70751953125 26.4415283203125 -17.3323974609375
23.56396484375 7.6397705078125 -14.9390869140625
47.160400390625 1.0162353515625 -10.9609375
-30.307373046875 8.193359375 18.66748046875
-54.796875 23.235107421875 9.2877197265625
-50.133056640625 23.6099853515625 8.47314453125
-24.0986328125 30.0826416015625 -10.759765625
-8.7060546875 21.0377197265625 22.111083984375
-21.517333984375 31.91796875 -16.484375
-20.275146484375 27.7835693359375 -4.314697265625
-31.5205078125 12.7552490234375 17.1727294921875
-17.25830078125 29.5146484375 -8.765625
39.897216796875 -0.27294921875 -11.572021484375
37.85888671875 1.5777587890625 -16.6126708984375
-66.5029296875 48.1964111328125 -10.5400390625
-62.225830078125 39.335205078125 15.100341796875
-68.716064453125 44.6746826171875 0.724609375
-49.503662109375 -1.4613037109375 35.1998291015625
5.077880859375 30.1903076171875 -10.9967041015625
45.033935546875 2.6796875 -6.8375244140625
10.7353515625 28.212158203125 -22.1641845703125
-17.30078125 26.1937255859375 -0.320068359375
-49.51025390625 -2.6595458984375 38.3193359375
-48.701904296875 9.0291748046875 18.087646484375
-68.73583984375 13.1868896484375 11.006103515625
16.4169921875 17.0771484375 -14.812255859375
-43.321044921875 27.9490966796875 -0.638427734375
-70.881591796875 46.22607421875 -3.375244140625
27.018798828125 7.1234130859375 -23.4100341796875
25.39599609375 3.85693359375 -11.0679931640625
-42.05224609375 14.72412109375 17.254150390625
-48.654052734375 2.902099609375 24.3076171875
20.971923828125 8.9842529296875 -7.077880859375
-17.67919921875 30.9619140625 -14.10693359375
-52.974365234375 49.4100341796875 -17.92626953125
3.782958984375 29.21826171875 -7.699951171875
-55.231689453125 22.2010498046875 12.5361328125
49.255615234375 2.2972412109375 -14.91064453125
37.884521484375 4.2928466796875 -24.835693359375
36.7255859375 6.669921875 -30.212890625
-41.645751953125 17.8414306640625 16.6824951171875
-46.164794921875 5.2276611328125 20.1610107421875
19.47607421875 14.618896484375 -19.0916748046875
21.33984375 11.04248046875 -15.9676513671875
30.875 0.4989013671875 -10.9317626953125
-53.202880859375 1.82470703125 25.763427734375
-39.94091796875 2.7225341796875 25.5216064453125
-41.608154296875 2.467529296875 26.7510986328125
-8.12548828125 18.6575927734375 7.13330078125
-32.476318359375 -0.2528076171875 32.475830078125
-29.975830078125 0.0643310546875 30.8297119140625
39.201171875 5.4560546875 -26.7198486328125
-34.946044921875 2.7022705078125 24.21142578125
-50.96533203125 19.0419921875 16.138671875
-29.7197265625 22.5899658203125 12.9189453125
2.494384765625 28.9202880859375 -6.4442138671875
-3.556396484375 23.6207275390625 11.2535400390625
3.33935546875 27.6363525390625 -2.7911376953125
-10.436767578125 21.222412109375 20.39990234375
2.931396484375 29.8282470703125 -9.31201171875
0.352783203125 29.097412109375 -6.3924560546875
-8.615966796875 32.537109375 -14.3387451171875
-0.0703125 29.6719970703125 -8.014892578125
-6.910400390625 31.586669921875 -11.9310302734375
-72.872314453125 12.342529296875 12.1202392578125
-33.5146484375 27.4063720703125 -1.688232421875
-5.616943359375 33.83837890625 -20.1834716796875
-34.8984375 11.00927734375 17.6378173828125
-36.4755859375 30.0677490234375 -8.9287109375
19.885009765625 16.4979248046875 -25.919921875
-45.789306640625 -2.197509765625 38.443359375
-48.01611328125 25.795654296875 5.0218505859375
-24.072509765625 32.6668701171875 -18.0491943359375
35.978759765625 6.9832763671875 -4.6297607421875
-30.1005859375 27.4569091796875 -1.703857421875
-25.376708984375 30.5582275390625 -12.3858642578125
-18.989501953125 28.955322265625 -9.2889404296875
-29.697021484375 25.0057373046875 5.602294921875
-31.38525390625 27.02587890625 -0.0469970703125
-19.346435546875 35.0325927734375 -25.4287109375
-27.960693359375 28.085693359375 -4.1943359375
-35.631103515625 29.391845703125 -6.0408935546875
-41.60546875 29.483154296875 -4.677001953125
-27.08251953125 30.6993408203125 -12.344482421875
20.57275390625 10.85400390625 -12.626220703125
-33.92822265625 28.7830810546875 -5.7406005859375
-19.455078125 24.830078125 3.3221435546875
33.359130859375 4.020263671875 -22.7684326171875
41.2666015625 4.2757568359375 -23.215087890625
-47.02001953125 -1.3583984375 35.2236328125
49.73193359375 4.6492919921875 -21.1533203125
48.51513671875 6.9586181640625 -27.807373046875
79.827880859375 0.2108154296875 -15.9847412109375
53.8291015625 1.3221435546875 -12.210205078125
70.341064453125 1.12548828125 -16.148193359375
81.496337890625 2.021484375 -21.9222412109375
67.465576171875 2.66259765625 -20.010009765625
64.154541015625 1.7672119140625 -16.3916015625
58.37060546875 1.3363037109375 -13.4996337890625
81.506103515625 3.06005859375 -25.067626953125
73.63525390625 0.203369140625 -14.26220703125
20.635986328125 14.7120361328125 -23.291748046875
17.549560546875 14.3687744140625 -11.08544921875
-15.732421875 19.334716796875 10.36572265625
45.89208984375 1.9774169921875 -14.5250244140625
