-14.491943359375 44.1181640625 -34.5096435546875
50.66357421875 6.0152587890625 -24.040283203125
-0.369873046875 24.9969482421875 -16.33251953125
-18.33740234375 32.3179931640625 -31.17724609375
-12.270263671875 39.4739990234375 -33.8468017578125
-21.734130859375 38.1739501953125 -20.7423095703125
-32.195556640625 -2.9049072265625 24.234130859375
-19.408203125 42.52099609375 -30.6307373046875
6.0849609375 24.7025146484375 -15.635498046875
-50.12060546875 14.8443603515625 41.5528564453125
61.362548828125 9.1170654296875 -36.19677734375
-20.166748046875 17.476806640625 15.95556640625
37.131591796875 20.8031005859375 -49.8642578125
-15.224853515625 29.03662109375 -28.0841064453125
-34.378662109375 -5.190185546875 27.9825439453125
78.89111328125 10.203125 -31.00341796875
30.14990234375 -0.3712158203125 -21.2423095703125
-23.434326171875 19.023193359375 2.885498046875
12.96337890625 16.3486328125 -3.12890625
3.227783203125 19.77685546875 0.2340087890625
28.4169921875 -4.6107177734375 -1.9837646484375
40.241943359375 18.7896728515625 -47.2093505859375
-33.14306640625 31.0830078125 7.5404052734375
-14.95068359375 31.7685546875 -32.8544921875
66.62890625 9.9210205078125 -47.48095703125
-16.599365234375 35.738037109375 -32.1575927734375
78.78857421875 12.521240234375 -23.96875
-4.8779296875 22.4852294921875 -7.67626953125
19.7509765625 13.311279296875 -21.1375732421875
-21.8134765625 15.6378173828125 20.8770751953125
39.92333984375 9.9205322265625 -24.6512451171875
40.159423828125 4.67724609375 -25.5045166015625
64.81103515625 9.10546875 -44.1544189453125
-26.329833984375 17.76416015625 6.356689453125
40.746337890625 15.8511962890625 -41.619384765625
-22.346435546875 37.2745361328125 -12.1871337890625
40.686767578125 29.2520751953125 -70.1231689453125
-11.332763671875 30.2100830078125 -32.5484619140625
57.947509765625 1.8699951171875 -27.46337890625
-59.490234375 6.6175537109375 -1.6114501953125
-25.533203125 38.24072265625 -16.0723876953125
-53.197265625 8.1995849609375 -8.7042236328125
-53.264892578125 -2.5418701171875 26.2091064453125
-53.76708984375 5.43408203125 -8.0689697265625
79.246826171875 -3.6422119140625 -22.4266357421875
8.182373046875 22.083251953125 -8.0028076171875
-15.37939453125 15.5616455078125 18.3839111328125
-53.456298828125 -5.6978759765625 30.4554443359375
-52.742919921875 7.1468505859375 20.320068359375
44.00244140625 -3.537841796875 -22.3038330078125
40.731689453125 20.3414306640625 -57.648193359375
63.626708984375 5.8487548828125 -35.2950439453125
-48.567138671875 9.6307373046875 19.408447265625
52.38330078125 -2.813720703125 -21.941650390625
61.716552734375 9.275634765625 -39.4136962890625
-44.2216796875 -4.99267578125 27.2847900390625
-9.496337890625 45.7208251953125 -36.9716796875
-42.49951171875 -3.7435302734375 24.3021240234375
40.901123046875 28.2113037109375 -74.091796875
-44.26318359375 10.48046875 19.6463623046875
40.61083984375 14.6199951171875 -31.5675048828125
68.212158203125 -3.334228515625 -22.6954345703125
-26.8271484375 37.447021484375 -13.6265869140625
-7.378173828125 20.25048828125 -26.5247802734375
2.0634765625 23.6314697265625 -12.9598388671875
44.71630859375 3.92138671875 -28.9091796875
41.33154296875 -0.809326171875 -26.5880126953125
77.839599609375 -1.644775390625 -28.1351318359375
-49.358154296875 12.471435546875 49.2210693359375
-21.204833984375 17.5260009765625 7.2413330078125
-27.142333984375 34.5509033203125 -4.3712158203125
77.481689453125 -5.02294921875 -18.6864013671875
-38.082275390625 14.450439453125 15.39208984375
-3.459716796875 46.578857421875 -38.927978515625
63.552490234375 -4.2962646484375 -18.4935302734375
-47.73974609375 -5.0059814453125 26.84765625
40.195556640625 9.928466796875 -32.3935546875
36.606689453125 -6.61181640625 -6.906494140625
-25.144775390625 2.2279052734375 21.055419921875
74.850830078125 0.8739013671875 -27.177978515625
37.740478515625 -3.216552734375 -17.8519287109375
-38.68408203125 -2.27001953125 23.1207275390625
-20.71435546875 36.0238037109375 -27.577392578125
-7.50537109375 23.702880859375 -12.2347412109375
5.20654296875 25.8267822265625 -18.9295654296875
-19.64501953125 37.685302734375 -28.7196044921875
-27.025390625 32.0838623046875 3.9481201171875
-5.967041015625 16.3773193359375 8.9736328125
34.10791015625 -4.554443359375 -13.5775146484375
-51.5498046875 3.2646484375 20.7806396484375
-30.1552734375 32.450439453125 3.641845703125
57.839111328125 -5.673828125 -13.42919921875
58.583740234375 13.4039306640625 -39.7738037109375
-3.103271484375 24.6339111328125 -15.2467041015625
-42.121337890625 20.0823974609375 -0.7337646484375
51.3798828125 -4.1553955078125 -17.9827880859375
-30.21240234375 23.915771484375 -14.1434326171875
14.055419921875 21.7408447265625 -22.0167236328125
36.80517578125 5.716552734375 -25.423583984375
-16.94384765625 17.5926513671875 7.33349609375
-34.8291015625 11.2205810546875 18.901611328125
40.703125 27.2177734375 -71.385009765625
44.99267578125 6.70654296875 -36.317626953125
-52.817138671875 8.8284912109375 18.1759033203125
-25.7685546875 15.0582275390625 14.376708984375
-6.335205078125 25.1802978515625 -18.3653564453125
-11.8779296875 23.8028564453125 -7.2252197265625
-14.308837890625 22.5289306640625 -5.5040283203125
42.48974609375 4.9932861328125 -30.3013916015625
74.799072265625 -4.9486083984375 -18.2191162109375
-17.459228515625 30.1649169921875 -26.5916748046875
-2.6435546875 23.7545166015625 -12.5084228515625
2.240966796875 21.5926513671875 -5.888671875
-52.302734375 -7.6368408203125 36.2630615234375
11.9873046875 23.0677490234375 -19.8060302734375
26.2744140625 9.60302734375 -27.0032958984375
36.256591796875 2.696044921875 -27.05859375
27.136474609375 1.0916748046875 -17.8812255859375
54.7509765625 -5.158203125 -15.0084228515625
-40.32373046875 0.7275390625 21.3623046875
-36.20751953125 20.4727783203125 -5.046875
33.2548828125 2.4678955078125 -27.9212646484375
2.4892578125 20.389892578125 -1.830810546875
-10.386474609375 12.1500244140625 10.75244140625
-27.574951171875 -4.29638671875 25.960693359375
-4.39453125 44.3792724609375 -35.5455322265625
-27.29248046875 8.7510986328125 19.936279296875
31.42236328125 -1.9344482421875 -17.47900390625
-11.34716796875 18.49560546875 4.407470703125
-34.31005859375 23.023681640625 -8.2200927734375
40.493408203125 12.5771484375 -29.1124267578125
-48.60791015625 16.2427978515625 4.8634033203125
80.38818359375 2.4422607421875 -27.3245849609375
39.942138671875 -1.8880615234375 -22.740966796875
-51.211181640625 -2.04833984375 22.4935302734375
-46.68994140625 4.6766357421875 20.6717529296875
-26.258056640625 -2.317626953125 23.09912109375
-12.97802734375 14.0716552734375 14.1080322265625
26.04443359375 3.2965087890625 -16.2972412109375
21.98876953125 11.2625732421875 -25.5743408203125
59.9140625 -1.5439453125 -27.2353515625
62.180908203125 -6.1888427734375 -12.8441162109375
-47.84375 -7.18798828125 34.92138671875
-5.4677734375 40.424072265625 -33.9697265625
35.110595703125 -5.9610595703125 -8.77978515625
-41.544677734375 14.0245361328125 42.73583984375
18.058837890625 10.5074462890625 -7.2774658203125
38.77294921875 13.9912109375 -19.753173828125
10.2998046875 47.651123046875 -35.9482421875
3.866943359375 19.0733642578125 2.2159423828125
60.326416015625 9.3746337890625 -27.591064453125
-0.0419921875 45.160888671875 -35.3687744140625
33.514404296875 -0.2537841796875 -26.1524658203125
-28.77880859375 13.1239013671875 17.95947265625
-52.2724609375 12.43212890625 50.7491455078125
-16.63427734375 27.60107421875 -26.5086669921875
-21.59765625 16.4039306640625 10.5333251953125
23.567138671875 2.4420166015625 -2.1954345703125
62.597900390625 -4.7711181640625 -16.58056640625
-48.637451171875 13.915283203125 44.54443359375
59.658203125 9.033203125 -20.4935302734375
-21.380615234375 40.4168701171875 -26.2513427734375
58.14404296875 -4.3465576171875 -17.23681640625
-37.6201171875 1.642333984375 21.2908935546875
-29.072021484375 1.894775390625 21.37451171875
-12.07861328125 14.2760009765625 24.0982666015625
-10.301513671875 9.6494140625 15.1446533203125
-12.501953125 19.249755859375 2.2135009765625
61.5703125 12.147216796875 -41.1412353515625
38.96630859375 -0.5333251953125 -26.949462890625
-49.288330078125 -6.1226806640625 30.5162353515625
-20.984619140625 31.240966796875 -27.114990234375
12.544189453125 18.9927978515625 -12.0965576171875
-34.53515625 4.0618896484375 20.7117919921875
26.478515625 0.902587890625 -11.2716064453125
-30.207275390625 33.6861572265625 -0.7672119140625
12.439453125 15.3328857421875 3.2808837890625
60.933349609375 7.486572265625 -30.682373046875
-20.64697265625 35.408447265625 -24.493408203125
-8.306640625 43.3800048828125 -34.716064453125
14.26611328125 14.6099853515625 -2.386962890625
28.579833984375 1.828125 -23.327880859375
-52.951416015625 12.0064697265625 0.809814453125
-10.638916015625 13.7884521484375 25.6322021484375
66.269287109375 0.293701171875 -27.8350830078125
-62.4384765625 1.211669921875 7.5667724609375
-12.54638671875 17.7459716796875 7.519287109375
25.32177734375 -3.1060791015625 0.9320068359375
63.303955078125 13.6112060546875 -50.006591796875
43.85546875 5.9345703125 -33.2294921875
-27.0546875 6.1007080078125 20.658203125
41.82177734375 9.13134765625 -37.445068359375
22.44921875 6.6407470703125 -14.25439453125
-16.182373046875 14.51611328125 23.168701171875
60.9296875 12.0748291015625 -36.0433349609375
24.8359375 7.222412109375 -21.3736572265625
-7.973388671875 14.068603515625 23.9755859375
15.9365234375 10.8184814453125 5.7100830078125
39.90185546875 8.914306640625 -30.5325927734375
-48.22021484375 9.0069580078125 -15.423583984375
40.62109375 10.4708251953125 -38.7633056640625
5.50439453125 22.5462646484375 -8.97021484375
-25.108642578125 32.9542236328125 0.27001953125
-50.838134765625 -7.21484375 33.6849365234375
53.62890625 -2.072021484375 -24.072509765625
37.31689453125 -0.998291015625 -25.39892578125
77.7822265625 3.4669189453125 -25.3656005859375
25.57470703125 -1.4271240234375 -2.1990966796875
9.823974609375 23.7012939453125 -16.973876953125
21.392578125 9.5623779296875 -19.2637939453125
-10.165771484375 14.7071533203125 9.6455078125
-25.674560546875 17.1595458984375 8.3916015625
-1.8671875 15.4112548828125 11.4945068359375
47.378173828125 -3.4921875 -18.36083984375
-7.34228515625 18.176025390625 5.65576171875
63.77197265625 15.0626220703125 -54.0003662109375
-63.38037109375 2.5350341796875 4.842041015625
39.906982421875 18.28271484375 -45.1771240234375
9.654541015625 18.91064453125 -1.3194580078125
55.3330078125 0.98876953125 -28.421630859375
-18.804443359375 39.6531982421875 -28.8670654296875
64.9619140625 18.484375 -60.21533203125
-10.109619140625 10.1990966796875 9.849609375
-33.38623046875 32.7633056640625 0.7406005859375
-21.162353515625 34.6240234375 -2.0458984375
12.638671875 21.6400146484375 -15.7569580078125
47.26806640625 11.0440673828125 -47.4542236328125
33.136474609375 -2.5703125 -18.53369140625
-25.91748046875 13.63134765625 17.1329345703125
-40.01123046875 13.0655517578125 46.2960205078125
-8.273193359375 21.8489990234375 -29.970947265625
50.449951171875 0.939697265625 -28.9349365234375
-58.64794921875 3.64404296875 -1.8446044921875
37.58203125 17.746826171875 -38.1546630859375
-6.994384765625 19.3216552734375 1.826171875
56.005126953125 -4.410400390625 -17.156982421875
0.8515625 17.7943115234375 5.267822265625
41.5 22.610107421875 -67.5076904296875
-32.98291015625 0.434814453125 21.5576171875
62.970947265625 -2.920654296875 -23.633544921875
-46.4296875 13.8157958984375 43.5972900390625
-12.464111328125 31.947265625 -33.1553955078125
42.655517578125 15.2415771484375 -55.838134765625
-44.39599609375 14.8616943359375 37.8536376953125
13.015869140625 25.2869873046875 -21.76416015625
-27.361083984375 35.5789794921875 -7.425537109375
20.64208984375 19.7427978515625 -21.65966796875
41.488037109375 -3.305419921875 -18.7806396484375
38.8984375 20.279541015625 -51.3206787109375
64.021728515625 16.6954345703125 -56.5557861328125
39.524658203125 17.5399169921875 -41.3447265625
-33.80224609375 32.275634765625 3.2978515625
-16.271484375 42.29638671875 -32.760986328125
27.935546875 2.6925048828125 -21.2216796875
21.169921875 11.34765625 -22.4501953125
40.583251953125 13.4150390625 -45.613037109375
0.72705078125 22.687744140625 -9.037841796875
-39.1865234375 -5.938720703125 30.0966796875
66.49365234375 -3.812744140625 -21.09716796875
-36.34326171875 7.9833984375 20.4122314453125
-21.76123046875 26.93896484375 -22.834716796875
-17.41015625 21.0914306640625 -2.19384765625
71.90625 -4.010498046875 -20.9993896484375
-46.16845703125 12.765380859375 47.9981689453125
-12.6142578125 14.4952392578125 21.8333740234375
-45.10302734375 12.0068359375 49.7982177734375
67.275634765625 7.23583984375 -40.1536865234375
-64.81396484375 0.991943359375 8.6298828125
-30.8388671875 30.496337890625 7.3458251953125
-27.26171875 11.6766357421875 18.984130859375
7.7919921875 23.9400634765625 -14.7652587890625
-11.086669921875 32.2381591796875 -34.8150634765625
-19.7724609375 34.11328125 -27.1307373046875
49.520751953125 -6.0294189453125 -11.079833984375
75.793701171875 -1.018310546875 -28.1568603515625
-37.203125 -3.7418212890625 24.6439208984375
-31.778564453125 34.562744140625 -6.033935546875
27.10400390625 -4.2373046875 -0.353515625
45.8212890625 -7.38818359375 -6.7379150390625
-52.9755859375 -4.82470703125 33.88720703125
-53.83740234375 -2.44775390625 23.8712158203125
-53.174560546875 3.82763671875 22.779296875
-22.05810546875 42.1331787109375 -30.01806640625
54.731689453125 12.6082763671875 -41.090087890625
8.673828125 48.6416015625 -40.4365234375
-36.41650390625 -2.358642578125 23.2774658203125
-7.505615234375 8.3096923828125 14.2694091796875
70.85693359375 -0.363525390625 -28.80712890625
45.585205078125 15.9217529296875 -59.1585693359375
-31.833251953125 31.8878173828125 5.0596923828125
-46.449951171875 -3.04345703125 23.5430908203125
-20.413330078125 30.436279296875 -21.5013427734375
-45.63134765625 14.6827392578125 41.338134765625
-47.3203125 -6.4793701171875 30.9111328125
26.1298828125 0.0555419921875 -6.29345703125
-46.16064453125 10.901123046875 18.864501953125
58.5126953125 6.80322265625 -23.48779296875
43.8994140625 1.993408203125 -27.6722412109375
39.935546875 -3.6912841796875 -17.1334228515625
-28.074462890625 -4.930908203125 28.474853515625
59.91845703125 10.711669921875 -23.146240234375
-17.826416015625 35.4522705078125 -13.0299072265625
-22.249755859375 38.33447265625 -23.78076171875
56.184326171875 -3.3116455078125 -20.0909423828125
72.311767578125 -4.53857421875 -19.0487060546875
49.156494140625 -4.7398681640625 -14.6729736328125
-46.966552734375 -4.1783447265625 25.1763916015625
0.131591796875 23.5001220703125 -12.3907470703125
-8.183349609375 13.468994140625 21.427734375
42.340576171875 -1.2825927734375 -24.9111328125
63.603271484375 19.7501220703125 -57.3380126953125
-48.1494140625 0.9847412109375 21.33642578125
-51.37060546875 13.4547119140625 46.4642333984375
-51.701416015625 8.12255859375 -10.89111328125
-27.60302734375 23.0950927734375 -13.8394775390625
3.74462890625 48.651123046875 -43.7271728515625
-2.0390625 47.557373046875 -42.6549072265625
0.1591796875 48.000732421875 -43.026123046875
46.2724609375 -6.7528076171875 -8.78076171875
-8.37158203125 8.9215087890625 10.5443115234375
53.2666015625 -1.5599365234375 -25.971923828125
39.2666015625 -5.386962890625 -3.565185546875
39.545166015625 13.7757568359375 -22.0269775390625
18.91796875 13.2630615234375 -16.572998046875
47.114501953125 12.561279296875 -52.0670166015625
76.370849609375 -3.6279296875 -22.5611572265625
-49.2978515625 8.4293212890625 -13.862548828125
78.66015625 1.5838623046875 -26.8720703125
39.948486328125 11.475341796875 -23.4249267578125
45.400146484375 -3.474853515625 -18.1917724609375
59.095458984375 -2.8314208984375 -22.6744384765625
67.79248046875 -1.7674560546875 -28.160888671875
58.1162109375 12.2349853515625 -20.155517578125
-6.499755859375 11.314453125 9.13427734375
81.1025390625 -3.9700927734375 -21.8321533203125
40.892333984375 2.20654296875 -27.3338623046875
-42.710693359375 13.509765625 41.2269287109375
28.58740234375 -2.8780517578125 -6.1334228515625
52.101806640625 -5.1954345703125 -14.13232421875
18.208740234375 21.5650634765625 -22.3167724609375
8.99169921875 21.858154296875 -10.2635498046875
42.60107421875 -6.4324951171875 -8.719970703125
61.93115234375 6.6029052734375 -34.6334228515625
79.524658203125 9.5067138671875 -26.5404052734375
11.44873046875 50.25537109375 -42.48193359375
-10.513427734375 19.47509765625 1.2510986328125
16.1884765625 13.223876953125 -5.7615966796875
-2.491943359375 22.470947265625 -8.0986328125
56.88623046875 -1.209716796875 -27.3134765625
29.998046875 -5.3076171875 -3.6517333984375
47.62255859375 17.9390869140625 -61.779541015625
16.05029296875 11.49658203125 -0.580810546875
38.0361328125 0.50146484375 -28.322998046875
-52.139892578125 0.4295654296875 21.368896484375
60.540283203125 16.8798828125 -45.784423828125
10.66650390625 19.7569580078125 -7.535888671875
39.8623046875 10.4122314453125 -34.2532958984375
-3.78662109375 18.01611328125 6.2529296875
62.962646484375 -4.2972412109375 -21.763427734375
60.795654296875 -2.356201171875 -24.2603759765625
65.562255859375 -2.2191162109375 -25.76513671875
-35.880126953125 0.4853515625 21.572998046875
-55.505126953125 5.8265380859375 -6.318603515625
-28.9482421875 35.1124267578125 -6.416015625
17.81591796875 11.5692138671875 -8.8798828125
-15.566650390625 16.0289306640625 26.9683837890625
36.277587890625 -2.446533203125 -20.5986328125
5.737060546875 46.7532958984375 -36.205322265625
-5.844970703125 13.7760009765625 23.3135986328125
65.468505859375 21.641845703125 -60.1722412109375
34.544677734375 -1.205078125 -24.695068359375
-58.63134765625 1.8341064453125 4.0252685546875
44.203369140625 12.846923828125 -52.072998046875
20.66845703125 3.6737060546875 -0.35302734375
-9.853515625 37.35205078125 -34.78515625
-11.336181640625 12.2918701171875 12.4205322265625
60.104248046875 -3.4293212890625 -20.5283203125
41.0322265625 16.9072265625 -53.8526611328125
-19.905517578125 28.224365234375 -23.7958984375
40.530029296875 18.8492431640625 -55.55126953125
63.96337890625 -0.33544921875 -28.540283203125
79.53125 5.2166748046875 -27.93505859375
16.696533203125 7.7242431640625 3.4520263671875
-4.498291015625 13.03857421875 26.7890625
62.547607421875 15.6705322265625 -49.4119873046875
61.5244140625 12.3997802734375 -39.1007080078125
44.01025390625 11.0819091796875 -47.709228515625
79.119384765625 6.9730224609375 -26.8115234375
38.901123046875 -4.843505859375 -1.4033203125
-45.60107421875 -6.6092529296875 32.8759765625
-20.148193359375 36.750244140625 -16.853271484375
-10.80322265625 13.9464111328125 20.8804931640625
17.416259765625 9.5657958984375 2.6658935546875
-10.95947265625 10.4234619140625 11.6075439453125
65.661865234375 -4.2042236328125 -19.0947265625
-5.077392578125 34.6456298828125 -35.0333251953125
-7.83544921875 12.2095947265625 19.3424072265625
-37.170654296875 -6.325927734375 31.00830078125
-51.22509765625 -4.4293212890625 25.729248046875
-38.4296875 12.891357421875 17.421630859375
-24.1787109375 37.8310546875 -14.6943359375
31.613525390625 1.69677734375 -28.4757080078125
9.560546875 18.6751708984375 0.5614013671875
21.841064453125 7.031005859375 -12.33203125
-43.32958984375 5.71533203125 20.523681640625
21.780517578125 6.0135498046875 -8.3341064453125
42.334228515625 6.1429443359375 -31.7938232421875
20.244140625 10.3115234375 -14.4359130859375
15.64794921875 24.85791015625 -21.84326171875
-9.5234375 20.65185546875 -2.7255859375
-18.780029296875 44.427001953125 -35.1680908203125
16.10498046875 12.97998046875 -3.8912353515625
24.0146484375 2.9227294921875 -8.35498046875
22.17822265625 21.0836181640625 -21.371826171875
-8.544189453125 21.43310546875 -27.4185791015625
18.818359375 7.139892578125 -0.4796142578125
6.427734375 22.1287841796875 -7.2562255859375
-40.921142578125 -6.5980224609375 32.4063720703125
40.272216796875 13.2357177734375 -41.5150146484375
-5.275146484375 20.6680908203125 -28.30126953125
-31.437255859375 4.763671875 20.6942138671875
15.96875 14.238525390625 -12.905517578125
47.583251953125 17.597900390625 -63.78271484375
-4.0400390625 18.484619140625 4.32568359375
16.640625 13.98486328125 -9.7255859375
4.329833984375 44.6585693359375 -32.904296875
66.36181640625 15.6351318359375 -59.010986328125
-42.2509765625 12.5908203125 46.8988037109375
12.03857421875 18.5975341796875 -5.9791259765625
38.1767578125 19.4298095703125 -54.2908935546875
6.58740234375 20.8358154296875 -3.2803955078125
45.172119140625 -0.9415283203125 -26.5382080078125
20.152587890625 15.1435546875 -25.0093994140625
-31.6552734375 15.071533203125 14.4515380859375
79.996826171875 10.7628173828125 -24.7879638671875
-24.980712890625 15.9024658203125 12.6646728515625
41.9970703125 6.6336669921875 -33.6546630859375
51.710693359375 19.96142578125 -59.0491943359375
18.71484375 12.3406982421875 -14.619384765625
13.03857421875 15.6982421875 -1.3826904296875
13.27978515625 17.3616943359375 -5.0201416015625
-36.123779296875 3.096923828125 20.8612060546875
50.63916015625 -2.4974365234375 -22.51953125
-20.487060546875 29.47314453125 -26.794921875
14.508544921875 10.800048828125 4.5137939453125
-41.827392578125 12.9324951171875 18.218505859375
3.960205078125 21.4188232421875 -5.195068359375
57.89697265625 3.336181640625 -26.318359375
31.279541015625 -4.8934326171875 -7.4398193359375
79.119873046875 11.02099609375 -27.5411376953125
40.856689453125 17.6883544921875 -57.3204345703125
-14.7880859375 45.0179443359375 -36.107666015625
48.8681640625 1.173828125 -27.990966796875
-14.979248046875 40.7430419921875 -32.948974609375
-31.6591796875 -4.1839599609375 25.88037109375
-32.073486328125 29.79541015625 8.9091796875
14.487548828125 15.675048828125 -5.8189697265625
26.57080078125 0.235595703125 -9.5455322265625
66.145263671875 5.3443603515625 -37.004638671875
-46.566650390625 17.1895751953125 3.92822265625
-11.092529296875 21.6666259765625 -6.445556640625
-17.74853515625 41.914306640625 -31.175048828125
46.974609375 13.81201171875 -54.4085693359375
-20.3212890625 31.2550048828125 -25.38916015625
76.5087890625 -2.3751220703125 -26.4774169921875
-46.50927734375 16.237060546875 38.00830078125
42.52587890625 10.6793212890625 -45.5950927734375
80.4912109375 -2.4644775390625 -27.46142578125
-18.89990234375 33.986572265625 -30.6270751953125
8.0361328125 18.7371826171875 3.9901123046875
46.080078125 -1.4991455078125 -24.9404296875
51.34130859375 -6.244873046875 -10.90087890625
11.5927734375 49.0599365234375 -39.1395263671875
-11.20849609375 17.1724853515625 9.4097900390625
44.082763671875 -7.0606689453125 -7.3505859375
-38.243896484375 -4.8389892578125 26.5556640625
-20.626953125 35.2652587890625 -20.2158203125
-18.046142578125 26.754638671875 -25.61328125
41.571044921875 26.708740234375 -74.916015625
20.718017578125 8.806640625 -11.9605712890625
28.005615234375 2.640380859375 -25.148681640625
19.156005859375 17.4549560546875 -23.3612060546875
60.796875 9.3924560546875 -33.3441162109375
-45.858642578125 -6.1380615234375 29.8565673828125
-7.298583984375 40.3668212890625 -34.2608642578125
4.5 29.1778564453125 -27.8853759765625
52.614501953125 -3.54833984375 -19.1851806640625
-53.01171875 5.66845703125 22.9139404296875
-20.930908203125 32.810546875 -22.984619140625
40.926513671875 18.24169921875 -51.9156494140625
70.703857421875 -4.935791015625 -17.351318359375
-34.832275390625 20.748779296875 -6.2098388671875
-12.97314453125 34.894775390625 -34.8323974609375
-31.032470703125 1.1629638671875 21.46630859375
-39.050048828125 9.926513671875 19.5479736328125
62.949951171875 11.013671875 -44.9912109375
35.685791015625 1.232421875 -27.9774169921875
-11.11572265625 20.593994140625 -26.0552978515625
-56.880859375 2.013916015625 1.603515625
-11.708740234375 8.5130615234375 12.7872314453125
71.62451171875 -3.261962890625 -23.7994384765625
-61.7548828125 1.407470703125 5.5699462890625
42.475830078125 -6.03369140625 -3.978271484375
2.607421875 21.218017578125 -3.891845703125
-16.362060546875 18.2830810546875 4.9246826171875
-1.01416015625 19.8875732421875 -0.155029296875
-42.514892578125 12.2628173828125 48.7303466796875
-21.048828125 34.9366455078125 -22.4903564453125
40.9560546875 22.892578125 -64.3731689453125
39.5341796875 6.3048095703125 -25.0064697265625
78.59375 -2.390869140625 -26.666259765625
-12.27880859375 13.4468994140625 16.1998291015625
-53.27392578125 -5.4385986328125 28.6298828125
36.99560546875 -4.110107421875 -15.60595703125
-50.658447265625 -6.3857421875 31.6627197265625
49.790771484375 11.091064453125 -44.098876953125
-11.72412109375 44.0177001953125 -34.8548583984375
5.08642578125 19.81640625 -0.4146728515625
-52.5458984375 -7.2191162109375 34.2628173828125
41.058837890625 19.8931884765625 -60.9647216796875
-45.06982421875 0.6279296875 21.2830810546875
30.00537109375 0.7738037109375 -22.730224609375
24.14111328125 2.0794677734375 -4.663330078125
1.979248046875 24.2728271484375 -15.16162109375
-4.549072265625 17.73974609375 8.3133544921875
-21.9580078125 37.1661376953125 -14.5201416015625
78.81982421875 6.423828125 -24.646484375
62.443603515625 12.3917236328125 -46.0352783203125
41.668701171875 19.71826171875 -64.50830078125
13.9111328125 17.3712158203125 -11.7847900390625
-45.077392578125 -2.236572265625 22.71142578125
55.08544921875 11.414794921875 -42.442626953125
30.31787109375 -2.902099609375 -12.4373779296875
-44.83544921875 13.6251220703125 44.400390625
-29.972412109375 33.9873046875 -2.9979248046875
64.8203125 -4.3720703125 -22.543701171875
19.06298828125 8.2030029296875 -3.40576171875
-36.219482421875 -5.275634765625 28.479248046875
30.2158203125 -1.1669921875 -18.626220703125
23.53369140625 4.29150390625 -9.40771484375
45.965087890625 11.2130126953125 -48.817138671875
-21.0595703125 17.5455322265625 20.22265625
40.432373046875 15.01806640625 -46.397705078125
45.6494140625 12.2799072265625 -50.840087890625
47.017333984375 -0.2833251953125 -28.4310302734375
-50.278076171875 7.3441162109375 20.2454833984375
28.462890625 -0.204833984375 -15.9410400390625
58.56640625 14.1492919921875 -41.400390625
60.86328125 10.7340087890625 -34.694091796875
-20.284423828125 36.549560546875 -15.057373046875
-20.037109375 37.79833984375 -26.9234619140625
-20.153076171875 32.31982421875 -19.9871826171875
-19.050537109375 15.93701171875 21.419921875
40.434814453125 24.7083740234375 -65.1888427734375
-48.656494140625 11.948486328125 50.954345703125
68.5458984375 -4.1087646484375 -19.3807373046875
67.802490234375 -5.16943359375 -16.117919921875
27.746337890625 -0.8134765625 -11.0478515625
-30.83984375 11.6744384765625 18.6673583984375
14.136962890625 23.5123291015625 -22.1285400390625
-25.3271484375 34.58203125 -3.0089111328125
-56.426025390625 7.6058349609375 -5.3330078125
-17.329833984375 16.465576171875 10.640869140625
35.349609375 21.45361328125 -49.77392578125
-9.528076171875 24.096923828125 -12.94873046875
-5.738525390625 21.5499267578125 -31.421630859375
59.15234375 -3.9014892578125 -18.62548828125
51.57958984375 -0.3819580078125 -28.58984375
59.254638671875 16.5245361328125 -42.5435791015625
-5.745361328125 46.04736328125 -38.6458740234375
24.639404296875 3.2840576171875 -11.92431640625
3.410400390625 45.6173095703125 -35.23388671875
36.882568359375 -6.1737060546875 -8.5987548828125
-20.167236328125 20.040771484375 -0.0367431640625
40.04443359375 11.810302734375 -35.491943359375
37.72021484375 -5.7884521484375 -10.5689697265625
-19.494873046875 16.268310546875 18.2381591796875
-8.46728515625 44.9622802734375 -35.484130859375
55.179931640625 -3.7550048828125 -18.7076416015625
63.8505859375 4.393798828125 -31.4168701171875
52.396484375 -6.7413330078125 -9.1500244140625
8.373291015625 25.4798583984375 -20.68994140625
62.3486328125 4.452880859375 -28.5101318359375
28.034912109375 -2.9876708984375 -4.4056396484375
16.17919921875 16.0406494140625 -18.4036865234375
22.463134765625 9.914306640625 -24.5428466796875
-28.14892578125 16.38525390625 10.3006591796875
-49.936279296875 2.0469970703125 20.9654541015625
-7.66015625 17.7689208984375 7.33984375
60.779052734375 10.24951171875 -31.489013671875
28.95166015625 -2.798095703125 -8.9676513671875
47.1591796875 11.3438720703125 -50.6832275390625
56.951171875 -3.034423828125 -21.6495361328125
-53.836181640625 0.392578125 22.4556884765625
-9.1689453125 8.90185546875 16.3524169921875
-53.957763671875 2.3638916015625 -3.533447265625
29.6103515625 2.66748046875 -27.881591796875
34.565185546875 -2.2685546875 -20.2552490234375
-30.28076171875 32.9879150390625 0.8411865234375
27.805908203125 -0.392822265625 -14.32470703125
61.367431640625 15.037353515625 -43.367919921875
-9.3828125 17.20849609375 8.7779541015625
-32.852783203125 22.2386474609375 -8.91455078125
9.64111328125 21.1610107421875 -8.3092041015625
-1.94091796875 46.966064453125 -40.0526123046875
61.143310546875 8.1912841796875 -34.726318359375
-60.57958984375 1.556640625 3.322509765625
48.05029296875 -4.3612060546875 -15.975341796875
79.769287109375 11.5994873046875 -19.918212890625
41.04296875 22.1556396484375 -61.8822021484375
-8.662353515625 22.352294921875 -7.9737548828125
39.967529296875 17.3841552734375 -36.42138671875
21.776123046875 5.71533203125 -5.447509765625
-47.658447265625 15.017578125 40.3814697265625
-7.454833984375 24.413330078125 -13.8360595703125
62.677978515625 7.756591796875 -38.7369384765625
45.989013671875 -6.1197509765625 -11.140869140625
-28.63623046875 31.624755859375 4.4490966796875
-34.928466796875 -3.2347412109375 24.1087646484375
26.905029296875 4.0982666015625 -21.97802734375
18.630615234375 13.87646484375 -19.8680419921875
-37.672607421875 19.5416259765625 -3.780517578125
69.504638671875 -1.5618896484375 -27.8861083984375
49.81640625 -3.6439208984375 -18.904052734375
-6.428955078125 37.2791748046875 -34.8482666015625
42.129150390625 18.030517578125 -60.434814453125
64.607421875 20.5374755859375 -61.383544921875
64.8974609375 12.283203125 -50.94775390625
-9.287353515625 18.067626953125 5.6861572265625
-35.51708984375 30.369140625 10.053466796875
7.98291015625 21.7659912109375 -6.2333984375
61.86328125 15.751220703125 -45.7803955078125
41.6220703125 16.8724365234375 -58.78173828125
-27.62109375 24.8642578125 -16.358154296875
-61.050048828125 3.3365478515625 1.1253662109375
19.205322265625 9.3221435546875 -7.85400390625
1.034912109375 23.088134765625 -10.69873046875
8.53955078125 23.338134765625 -12.7401123046875
-8.55078125 23.177001953125 -10.4921875
5.301513671875 49.0423583984375 -44.3797607421875
-33.689697265625 14.787109375 14.78466796875
-8.709228515625 31.759521484375 -35.47705078125
-20.0087890625 26.3995361328125 -22.806640625
1.651611328125 16.6708984375 14.9183349609375
18.501220703125 15.14599609375 -22.7642822265625
-16.189453125 43.55810546875 -34.0390625
-39.722900390625 -0.9801025390625 22.2589111328125
-5.965087890625 19.78369140625 -24.6961669921875
63.38330078125 -1.52001953125 -27.3203125
24.264892578125 8.3150634765625 -26.0050048828125
-42.9267578125 -1.833984375 22.5869140625
11.864990234375 21.38134765625 -14.228271484375
41.754638671875 15.3846435546875 -54.2354736328125
43.544677734375 -4.1353759765625 -16.2928466796875
-55.69873046875 2.2064208984375 -1.593505859375
41.88427734375 15.837890625 -57.2633056640625
-24.94677734375 33.7452392578125 -1.2559814453125
62.42333984375 17.792724609375 -49.5223388671875
39.93798828125 20.3328857421875 -53.735595703125
-22.130126953125 43.892822265625 -34.43017578125
-14.650634765625 17.4517822265625 7.871826171875
-11.325439453125 20.0084228515625 -1.3837890625
48.90234375 -2.182373046875 -23.094970703125
-18.73583984375 16.5604248046875 15.664306640625
42.21875 10.02099609375 -42.1842041015625
14.70751953125 13.579345703125 0.8748779296875
69.87060546875 -2.966064453125 -23.8681640625
11.773193359375 26.3780517578125 -21.2816162109375
65.74755859375 13.3779296875 -54.0008544921875
-1.19677734375 45.8336181640625 -36.9508056640625
-43.494384765625 7.8262939453125 20.0946044921875
44.90087890625 0.1326904296875 -28.121337890625
63.53857421875 18.4278564453125 -56.010986328125
45.578369140625 17.3609619140625 -62.2711181640625
23.416015625 8.124755859375 -20.564208984375
37.697265625 -3.61572265625 -1.3377685546875
-42.613037109375 13.50732421875 43.9814453125
-45.1904296875 13.1971435546875 46.65087890625
-5.735595703125 23.623291015625 -11.4788818359375
6.91455078125 23.5953369140625 -13.327392578125
14.291259765625 18.7567138671875 -17.4200439453125
-4.848876953125 45.6922607421875 -36.557861328125
74.880859375 -3.8021240234375 -21.72265625
-21.396240234375 43.4490966796875 -32.9183349609375
48.592529296875 -0.9412841796875 -26.116943359375
-18.2197265625 33.4615478515625 -15.6552734375
-27.31982421875 -3.4013671875 24.518310546875
-23.7177734375 38.53564453125 -22.39501953125
40.411865234375 15.8153076171875 -38.8787841796875
-47.761962890625 12.9583740234375 47.185546875
-50.53857421875 -3.1190185546875 23.7886962890625
-30.248779296875 7.6124267578125 20.3359375
-21.951416015625 35.11572265625 -5.163818359375
-3.625244140625 18.9783935546875 2.7344970703125
15.43212890625 20.724853515625 -21.915283203125
25.253173828125 6.9384765625 -25.7489013671875
-8.935302734375 19.211181640625 1.864501953125
-11.167236328125 23.5047607421875 -10.0302734375
-29.797607421875 -4.122802734375 25.8914794921875
77.073974609375 1.9354248046875 -26.3302001953125
53.1064453125 -4.751953125 -15.515869140625
0.51513671875 20.2764892578125 -1.7847900390625
-27.46630859375 15.1265869140625 14.576171875
-32.0927734375 34.162109375 -2.9127197265625
11.83544921875 51.3197021484375 -44.7197265625
-21.137939453125 36.6690673828125 -9.970703125
44.665283203125 8.7962646484375 -42.2625732421875
-34.269775390625 29.25732421875 11.611083984375
28.421875 -4.90673828125 -4.1727294921875
0.361572265625 42.5535888671875 -32.56201171875
-17.279296875 36.33837890625 -7.39501953125
28.434326171875 -1.702392578125 -12.684814453125
-8.0087890625 46.1060791015625 -38.568359375
16.598876953125 10.9912109375 -2.115234375
0.282470703125 17.3912353515625 11.501708984375
-26.156982421875 36.8798828125 -10.662109375
-11.2880859375 20.7392578125 -3.5057373046875
-3.8359375 13.859619140625 23.8516845703125
23.20263671875 0.841064453125 -0.61376953125
52.717041015625 1.07275390625 -28.4501953125
7.72802734375 48.992919921875 -42.539794921875
-28.56689453125 -2.25341796875 23.4532470703125
-0.24755859375 21.508056640625 -5.0506591796875
-47.370361328125 7.966796875 20.13330078125
-4.489990234375 20.8900146484375 -3.7872314453125
-17.416259765625 19.13427734375 2.3255615234375
-17.6591796875 45.0277099609375 -36.79150390625
44.03662109375 16.392333984375 -60.440185546875
39.9677734375 8.7491455078125 -28.6221923828125
47.4091796875 9.7825927734375 -45.0897216796875
-18.96630859375 41.2218017578125 -29.62744140625
40.58203125 -6.3814697265625 -9.0826416015625
21.6064453125 3.5364990234375 -2.03466796875
-53.90283203125 -6.2689208984375 33.519287109375
-20.90234375 35.6387939453125 -6.908203125
4.661865234375 23.0623779296875 -11.092529296875
36.30419921875 -5.50390625 -4.4522705078125
-30.31494140625 14.6168212890625 15.4066162109375
-25.12451171875 25.7406005859375 -19.1436767578125
-8.7744140625 21.524658203125 -5.4462890625
15.212890625 11.726318359375 1.1973876953125
-39.4287109375 4.990478515625 20.673583984375
43.744140625 5.106689453125 -31.69921875
-15.7060546875 15.1510009765625 20.085205078125
78.972412109375 8.539794921875 -30.7000732421875
-28.104736328125 34.1259765625 -3.04541015625
-30.5224609375 -2.39794921875 23.3519287109375
62.293701171875 1.029296875 -28.0911865234375
-4.47607421875 15.420654296875 9.71142578125
-14.8818359375 17.9166259765625 5.9608154296875
-1.02294921875 40.6788330078125 -33.0147705078125
-55.662109375 2.63916015625 2.59619140625
36.335205078125 -5.0599365234375 -12.33935546875
3.388671875 46.9058837890625 -38.4820556640625
40.453369140625 14.627197265625 -42.7479248046875
-53.51611328125 6.89208984375 21.801513671875
-23.53662109375 42.9197998046875 -29.79345703125
-28.244140625 4.4110107421875 20.637939453125
-31.228515625 15.5574951171875 12.8861083984375
32.995361328125 -1.876953125 -20.7413330078125
61.374755859375 14.046630859375 -39.9052734375
23.89111328125 3.15283203125 -6.2725830078125
-1.8408203125 18.140380859375 5.70703125
-8.0517578125 19.50634765625 -24.7703857421875
-40.583740234375 -5.525390625 29.0257568359375
-21.017333984375 42.6417236328125 -31.243896484375
39.760498046875 14.9061279296875 -35.6697998046875
-27.514404296875 38.60693359375 -18.229248046875
34.987060546875 -6.3450927734375 -6.4866943359375
4.484375 28.71435546875 -29.5550537109375
55.96533203125 -2.3043212890625 -24.7138671875
-44.652099609375 -5.4869384765625 28.8380126953125
45.019287109375 9.9073486328125 -44.509033203125
-2.099609375 17.0849609375 9.1534423828125
46.537109375 7.0927734375 -37.9599609375
5.8154296875 25.1558837890625 -17.5111083984375
45.365478515625 15.0301513671875 -57.7486572265625
34.0361328125 8.2347412109375 -24.413330078125
-1.4296875 44.366943359375 -34.8466796875
-41.525146484375 2.9517822265625 20.9521484375
-10.265869140625 11.844970703125 16.8701171875
26.55859375 0.7022705078125 -13.8404541015625
21.245849609375 10.2744140625 -16.5067138671875
-19.22998046875 34.2440185546875 -17.184326171875
41.810791015625 -6.3873291015625 -5.4776611328125
25.544677734375 2.7076416015625 -14.80810546875
-42.888916015625 19.8341064453125 0.73681640625
19.528076171875 9.5565185546875 -13.1204833984375
-19.569091796875 39.411865234375 -27.3939208984375
-30.54052734375 23.5302734375 -12.5445556640625
-18.051513671875 14.53466796875 22.213134765625
-52.40283203125 2.7672119140625 -2.50927734375
63.584716796875 19.2806396484375 -53.7427978515625
-15.141357421875 15.4595947265625 14.28857421875
-22.783447265625 18.4359130859375 4.4093017578125
-42.48779296875 -6.3660888671875 31.648681640625
-21.47509765625 42.0819091796875 -27.892822265625
-46.45751953125 -5.49169921875 27.8087158203125
-6.745361328125 12.55517578125 20.60791015625
1.87548828125 17.602294921875 12.905029296875
-24.06298828125 38.6280517578125 -18.1497802734375
-30.388427734375 -5.4393310546875 29.005615234375
-45.683349609375 -4.662353515625 26.1337890625
45.966552734375 5.5283203125 -33.546630859375
-24.744384765625 41.6463623046875 -27.5748291015625
6.577392578125 20.09130859375 -1.11767578125
26.17919921875 3.8092041015625 -19.9600830078125
-40.939208984375 -4.5904541015625 26.2384033203125
65.42919921875 15.180908203125 -57.16064453125
7.17822265625 22.4005126953125 -9.298828125
28.998779296875 1.4144287109375 -21.3763427734375
16.845458984375 17.417724609375 -20.915283203125
6.68359375 18.8157958984375 1.86083984375
16.91943359375 14.6895751953125 -14.763916015625
-45.7275390625 11.9390869140625 17.6329345703125
79.4208984375 9.02734375 -23.7554931640625
10.301513671875 24.28955078125 -18.957763671875
4.40771484375 21.144287109375 -3.6126708984375
65.0029296875 -5.92919921875 -14.5892333984375
-40.173828125 12.8616943359375 18.027099609375
40.76416015625 25.4295654296875 -69.3546142578125
-17.364501953125 17.1029052734375 8.911865234375
48.664794921875 14.2640380859375 -55.483154296875
0.64013671875 24.0732421875 -13.8685302734375
67.001220703125 11.9019775390625 -51.7869873046875
65.40869140625 8.3060302734375 -42.8228759765625
-4.382080078125 7.1981201171875 14.1964111328125
14.377197265625 17.089111328125 -10.213134765625
27.374267578125 5.590576171875 -26.958251953125
-25.740478515625 12.0216064453125 18.409912109375
-23.306884765625 41.338134765625 -26.155029296875
-23.0751953125 43.4755859375 -33.128173828125
-53.30078125 -5.056640625 31.98046875
-18.96923828125 16.6334228515625 10.428955078125
-53.252197265625 -4.1572265625 25.2554931640625
-9.821533203125 8.0513916015625 11.9354248046875
-49.3671875 -5.553955078125 28.719970703125
-20.55908203125 29.21923828125 -22.6385498046875
65.7509765625 9.5662841796875 -46.025634765625
-7.3916015625 22.5992431640625 -28.7630615234375
-48.577392578125 -0.5648193359375 21.7418212890625
-22.2421875 20.1612548828125 3.0545654296875
66.5947265625 -2.6805419921875 -24.558349609375
-40.84423828125 18.547607421875 -0.9195556640625
3.885986328125 22.8050537109375 -9.5653076171875
1.711669921875 22.373046875 -7.7493896484375
-36.291015625 29.50341796875 13.28759765625
-24.850341796875 24.2496337890625 -17.3431396484375
-6.0830078125 13.2860107421875 27.17578125
61.7099609375 -3.8072509765625 -20.543212890625
8.63134765625 50.0152587890625 -45.53271484375
0.050048828125 17.9986572265625 8.0810546875
-32.0791015625 13.384521484375 17.4193115234375
22.915771484375 7.3946533203125 -17.6666259765625
80.018310546875 0.5543212890625 -27.8067626953125
43.7314453125 15.28466796875 -57.7623291015625
-39.12890625 20.33935546875 -3.5770263671875
43.725830078125 -6.6929931640625 -12.4093017578125
62.354736328125 15.2373046875 -47.264404296875
-34.836181640625 31.143310546875 6.7393798828125
57.1943359375 -3.7730712890625 -18.8792724609375
16.021240234375 11.0677490234375 3.810302734375
4.3447265625 24.87939453125 -16.80029296875
47.715087890625 16.7149658203125 -59.9329833984375
-32.597412109375 3.642333984375 20.9952392578125
67.966796875 11.8626708984375 -53.8446044921875
80.255859375 11.0706787109375 -21.4971923828125
1.824462890625 45.229736328125 -35.0772705078125
15.432373046875 12.8006591796875 -2.2510986328125
-4.339111328125 46.93115234375 -40.530029296875
4.98876953125 47.9852294921875 -40.710205078125
38.520263671875 -3.860107421875 -16.3250732421875
-28.11328125 7.3826904296875 20.297607421875
49.390625 15.13134765625 -57.6678466796875
65.0341796875 10.276611328125 -47.430908203125
-11.41943359375 40.868896484375 -33.8050537109375
-39.929443359375 11.3668212890625 46.9586181640625
-45.80908203125 13.2686767578125 -6.6796875
41.816162109375 3.46630859375 -26.86181640625
-21.377197265625 37.8233642578125 -16.8717041015625
68.670654296875 -3.747314453125 -21.18603515625
46.3896484375 7.89501953125 -41.03662109375
33.275634765625 -5.858154296875 -8.5390625
63.748046875 3.415283203125 -28.92041015625
79.196533203125 10.744384765625 -29.14404296875
17.58740234375 9.3006591796875 1.0687255859375
-20.491455078125 36.1832275390625 -25.972900390625
-40.199462890625 7.0740966796875 20.4119873046875
-20.22216796875 16.3404541015625 14.7939453125
-44.658203125 15.129150390625 39.469970703125
30.637939453125 -5.709228515625 -5.089599609375
-43.102294921875 -4.3927001953125 25.6634521484375
-25.230224609375 39.21337890625 -19.34765625
-21.556884765625 39.0650634765625 -25.0535888671875
23.713134765625 4.63134765625 -11.1729736328125
17.06201171875 19.9964599609375 -22.5540771484375
-44.038330078125 14.528076171875 41.0770263671875
-26.05615234375 40.1654052734375 -21.6617431640625
46.252197265625 -4.9144287109375 -14.492919921875
-13.306884765625 37.9068603515625 -34.0482177734375
56.417724609375 -0.31494140625 -28.579345703125
-46.991455078125 18.425537109375 4.88427734375
-58.48876953125 6.016845703125 -2.8873291015625
-60.39306640625 5.6846923828125 -0.6453857421875
-48.486328125 5.16796875 20.48583984375
62.298583984375 10.581787109375 -41.5458984375
-1.6083984375 42.9942626953125 -33.63037109375
-23.0703125 16.5772705078125 12.9677734375
-35.43994140625 14.140625 16.6002197265625
-20.294189453125 44.6331787109375 -35.6903076171875
74.00341796875 -0.22412109375 -28.0042724609375
34.754150390625 17.740234375 -55.7891845703125
9.26904296875 17.644775390625 2.980712890625
-42.47119140625 4.2935791015625 20.691162109375
-31.821533203125 14.2705078125 15.9813232421875
20.97265625 6.8330078125 -6.7755126953125
50.208984375 -1.335693359375 -25.635009765625
-13.56689453125 13.8328857421875 27.3238525390625
-14.189208984375 45.6580810546875 -37.4603271484375
-16.84033203125 35.7406005859375 -10.4720458984375
42.72265625 13.17236328125 -51.5389404296875
-19.545654296875 43.0228271484375 -32.8251953125
45.70361328125 10.80029296875 -47.195556640625
29.339111328125 -0.1571044921875 -19.5111083984375
17.828369140625 16.78076171875 -22.7666015625
-18.548828125 15.7392578125 23.1456298828125
52.40087890625 13.2000732421875 -43.64111328125
-56.499267578125 4.227783203125 -4.305419921875
-39.218017578125 11.49560546875 18.7958984375
49.178955078125 18.1922607421875 -62.058837890625
12.0068359375 18.1458740234375 -7.7308349609375
10.41064453125 19.9342041015625 -5.54345703125
-8.298828125 13.4754638671875 28.2685546875
2.8701171875 29.902099609375 -27.7406005859375
43.649169921875 13.6187744140625 -53.356689453125
15.107177734375 14.0552978515625 -6.84814453125
60.27734375 9.7261962890625 -21.9420166015625
31.857421875 -2.8167724609375 -16.2216796875
36.5322265625 21.817138671875 -48.70703125
79.307373046875 7.053955078125 -30.2227783203125
61.62353515625 12.09912109375 -31.8233642578125
71.37451171875 3.9002685546875 -24.6773681640625
1.343017578125 18.5504150390625 8.9866943359375
44.501708984375 6.1181640625 -34.8353271484375
-27.09423828125 16.894775390625 9.0667724609375
58.24658203125 16.94580078125 -43.704345703125
47.431396484375 15.7205810546875 -58.119873046875
-12.2216796875 22.39306640625 -8.09326171875
59.412109375 -5.559326171875 -13.21337890625
64.4775390625 18.99853515625 -58.759521484375
49.32177734375 -2.5858154296875 -21.6146240234375
54.949951171875 -1.0880126953125 -27.5467529296875
12.189697265625 19.5482177734375 -8.973388671875
79.822265625 9.0323486328125 -21.5606689453125
-18.756103515625 35.7354736328125 -14.28759765625
-25.8330078125 35.9395751953125 -7.034423828125
31.241943359375 -3.033203125 -14.0982666015625
-1.12890625 22.6575927734375 -8.8887939453125
-7.334228515625 17.40185546875 8.8475341796875
40.27099609375 13.1904296875 -36.2371826171875
78.833740234375 4.78125 -24.8695068359375
34.729736328125 -1.9215087890625 -21.9991455078125
-7.5771484375 32.81591796875 -34.9989013671875
-4.794677734375 8.8680419921875 9.7060546875
29.425537109375 -3.7125244140625 -7.183837890625
39.833740234375 -6.3646240234375 -5.33154296875
79.582763671875 5.571044921875 -26.2454833984375
17.2705078125 11.1719970703125 -3.7554931640625
21.815673828125 8.6951904296875 -18.0128173828125
45.6904296875 3.4801025390625 -27.731689453125
79.068603515625 6.6160888671875 -28.5
-44.61328125 8.9854736328125 20.1512451171875
-51.48876953125 -5.328857421875 27.63916015625
-34.10107421875 -5.5831298828125 29.48486328125
61.122314453125 12.503173828125 -33.813720703125
-48.072509765625 -2.9500732421875 23.7237548828125
59.52099609375 1.02978515625 -28.206787109375
63.830810546875 17.3670654296875 -54.44873046875
-57.82470703125 4.4974365234375 -2.894775390625
8.587890625 20.4801025390625 -4.57666015625
40.447021484375 12.067138671875 -24.9287109375
41.242431640625 10.0577392578125 -40.14794921875
-23.74853515625 25.445068359375 -20.119873046875
-37.112060546875 13.629638671875 16.98388671875
-36.286376953125 4.6414794921875 20.61767578125
-51.665283203125 11.825439453125 52.3785400390625
27.290283203125 2.2025146484375 -16.781005859375
-49.30029296875 -7.4195556640625 33.931396484375
-21.711181640625 17.729248046875 15.8282470703125
-28.705322265625 33.4686279296875 -1.16796875
29.96728515625 -3.4412841796875 -10.3436279296875
-27.817626953125 36.3121337890625 -8.7486572265625
-13.450439453125 19.5684814453125 0.913818359375
55.172119140625 21.4903564453125 -56.734619140625
-32.821044921875 -1.70849609375 22.4971923828125
-9.08349609375 13.4114990234375 10.005615234375
60.234130859375 6.3035888671875 -26.0242919921875
-19.243408203125 31.4500732421875 -18.555908203125
24.5693359375 3.0257568359375 -10.072265625
33.13330078125 -5.153564453125 -10.7816162109375
-4.573974609375 20.0394287109375 -0.724609375
23.245361328125 3.5631103515625 -4.838134765625
43.536376953125 14.25830078125 -54.9998779296875
14.858154296875 17.35791015625 -14.86962890625
-14.544921875 35.013427734375 -34.00830078125
-28.2138671875 36.5634765625 -11.264404296875
61.692626953125 13.4637451171875 -41.984130859375
-5.94140625 7.447509765625 14.5897216796875
