54.48583984375 15.755859375 -30.3072509765625
36.28271484375 27.5574951171875 -60.43994140625
-53.100830078125 48.0831298828125 -15.1380615234375
58.992919921875 3.046630859375 -5.0062255859375
42.008056640625 21.393310546875 -38.4515380859375
13.7197265625 19.9793701171875 -19.7257080078125
58.33251953125 28.339599609375 -65.3770751953125
47.747314453125 6.56005859375 -18.1639404296875
-1.44482421875 46.4256591796875 -22.176025390625
58.405517578125 16.24072265625 -31.028564453125
14.822998046875 21.8834228515625 -25.138916015625
-55.804443359375 26.104248046875 6.276123046875
-15.119384765625 42.796142578125 -33.2720947265625
0.476806640625 56.4998779296875 -33.26171875
55.515869140625 8.26953125 -24.210693359375
38.326416015625 3.6566162109375 0.322265625
32.441650390625 20.4681396484375 -35.3868408203125
49.724609375 3.1019287109375 -6.1405029296875
70.603759765625 2.4937744140625 -12.180908203125
-25.956298828125 38.199462890625 -27.14794921875
-12.841064453125 29.9990234375 -28.61328125
-23.717041015625 24.148193359375 14.4757080078125
-12.885009765625 20.9541015625 16.64111328125
2.198974609375 34.130859375 -20.1258544921875
-39.23388671875 31.927734375 -9.1497802734375
7.383056640625 22.90576171875 -3.3126220703125
-22.445556640625 28.74853515625 -1.3515625
-5.448486328125 35.4176025390625 -21.618408203125
-57.74365234375 24.793701171875 10.236328125
-62.052978515625 22.315673828125 17.74462890625
-60.428955078125 41.1998291015625 4.42529296875
-49.050537109375 49.998046875 -18.3096923828125
-16.703125 28.8736572265625 2.407958984375
0.52783203125 32.9207763671875 -11.9749755859375
-38.564697265625 9.71337890625 20.6419677734375
-21.34326171875 23.54248046875 23.9254150390625
-3.377197265625 27.12255859375 13.6800537109375
-5.788330078125 27.1925048828125 9.5423583984375
-61.336181640625 11.822509765625 20.4954833984375
34.174072265625 3.881591796875 -10.687255859375
-36.83837890625 22.484619140625 17.1552734375
70.216552734375 7.8731689453125 -21.8997802734375
-14.5634765625 22.929931640625 22.4757080078125
-15.59228515625 35.23583984375 -16.628662109375
-67.983154296875 41.5830078125 6.685791015625
-6.871826171875 24.7620849609375 18.219970703125
16.29150390625 12.5670166015625 -5.960205078125
58.273681640625 2.5673828125 -8.2257080078125
-49.8193359375 10.402099609375 20.4893798828125
-9.254150390625 29.4197998046875 1.2222900390625
-61.725341796875 43.5936279296875 0.548095703125
-43.874755859375 47.87548828125 -16.888916015625
-54.52392578125 44.9844970703125 -3.116943359375
41.028076171875 9.7799072265625 -27.1754150390625
-17.0146484375 29.9117431640625 -27.392578125
65.218994140625 4.1951904296875 -14.627685546875
19.07861328125 8.5909423828125 -4.66064453125
-16.021728515625 33.6279296875 -23.5557861328125
13.634033203125 21.05859375 -21.598876953125
9.775634765625 19.8658447265625 -3.0362548828125
-51.96484375 45.724609375 -6.8802490234375
-34.049072265625 27.0474853515625 5.4993896484375
-1.43896484375 49.9072265625 -23.828369140625
-48.632568359375 3.8184814453125 29.221435546875
-37.17919921875 35.1387939453125 -14.1168212890625
60.688232421875 21.2135009765625 -39.582763671875
-35.296630859375 7.4688720703125 22.1588134765625
25.212646484375 6.5709228515625 -4.643310546875
58.37158203125 23.7288818359375 -53.332275390625
-68.742919921875 37.8192138671875 18.03076171875
-39.95849609375 3.1304931640625 30.5830078125
67.514404296875 6.4554443359375 -18.5831298828125
62.065673828125 3.515869140625 -5.326904296875
61.3232421875 9.277587890625 -26.02880859375
51.965087890625 21.6708984375 -40.376220703125
-9.042236328125 38.1851806640625 -28.7825927734375
-46.46044921875 46.75048828125 -9.308837890625
-46.849853515625 47.161865234375 -13.9827880859375
-49.411865234375 46.3790283203125 -9.79541015625
36.217529296875 29.3775634765625 -65.1495361328125
52.393310546875 24.1700439453125 -52.94140625
3.971923828125 27.489013671875 -4.568603515625
-32.641357421875 30.2396240234375 -6.9229736328125
-58.816650390625 11.724609375 20.4505615234375
-16.381103515625 26.423828125 5.28955078125
-61.859130859375 19.5020751953125 19.2440185546875
-14.5341796875 32.9996337890625 -29.47119140625
54.794189453125 25.888671875 -60.7861328125
-38.823974609375 28.9200439453125 -2.5203857421875
-50.322021484375 14.69482421875 19.7755126953125
26.7744140625 10.464111328125 -25.5147705078125
-25.537841796875 41.2469482421875 -30.9700927734375
-71.313232421875 38.2091064453125 13.81982421875
-40.1044921875 17.57177734375 19.4732666015625
72.1083984375 16.8123779296875 -31.7083740234375
54.062744140625 19.953857421875 -43.7537841796875
-9.48291015625 37.710205078125 -24.6549072265625
-37.095703125 14.850830078125 20.101806640625
5.42919921875 25.2335205078125 -1.6600341796875
-26.881591796875 30.7667236328125 -5.59130859375
-36.371337890625 28.5721435546875 2.8602294921875
54.442626953125 21.9464111328125 -49.9345703125
-11.401123046875 22.6712646484375 12.4239501953125
34.836181640625 7.14599609375 -19.649169921875
-53.426025390625 9.856201171875 20.8155517578125
-51.183349609375 26.364013671875 5.46044921875
-12.35009765625 34.4232177734375 -24.691650390625
-8.201904296875 27.7021484375 2.5721435546875
-16.654296875 29.5771484375 -4.566650390625
-12.171875 30.082763671875 -3.2408447265625
30.681396484375 3.1593017578125 -8.431884765625
41.923583984375 5.3170166015625 -14.01708984375
11.96337890625 19.7437744140625 -10.8140869140625
1.236083984375 29.3291015625 -3.4132080078125
-52.6376953125 17.1923828125 -19.3397216796875
40.8095703125 24.1943359375 -51.8292236328125
-53.688720703125 22.833740234375 16.5263671875
-52.342529296875 16.4267578125 -23.5526123046875
-14.29052734375 43.4071044921875 -36.572021484375
-18.02880859375 42.84130859375 -36.23388671875
-13.909423828125 26.2171630859375 7.73583984375
-9.87451171875 26.333984375 12.3165283203125
-9.41650390625 27.1328125 4.97021484375
-63.319091796875 15.2906494140625 -9.350341796875
50.12451171875 3.8590087890625 -10.3370361328125
-11.97900390625 32.855224609375 -30.729248046875
52.369140625 9.383544921875 -25.6324462890625
60.28955078125 19.14501953125 -32.6422119140625
-49.572509765625 29.163330078125 2.1865234375
54.362548828125 28.427001953125 -67.423583984375
-7.82177734375 38.1497802734375 -26.688232421875
-41.735595703125 31.1224365234375 -4.65185546875
-10.329345703125 37.2611083984375 -21.3631591796875
-3.725830078125 38.434814453125 -23.7056884765625
-46.281005859375 30.2373046875 -2.2657470703125
-28.467529296875 34.3460693359375 -18.0234375
-7.4169921875 27.4039306640625 6.676513671875
41.461181640625 7.178466796875 -17.669677734375
-52.40283203125 25.7071533203125 8.7012939453125
-41.287841796875 27.9239501953125 2.34423828125
-10.00439453125 34.1204833984375 -15.12255859375
-38.39794921875 28.6170654296875 -0.478759765625
-52.42578125 25.374755859375 11.9969482421875
-2.171875 35.8358154296875 -21.1370849609375
-67.204833984375 14.4521484375 1.23681640625
-19.244873046875 17.5595703125 12.2742919921875
-33.35302734375 10.2562255859375 21.1207275390625
10.625732421875 20.3172607421875 -7.86181640625
-16.5625 15.857177734375 14.7847900390625
-23.255859375 27.6680908203125 5.1417236328125
-6.831787109375 31.765869140625 -10.8992919921875
-27.3271484375 27.26123046875 3.4141845703125
-32.677978515625 25.8963623046875 9.4560546875
-44.219482421875 24.5391845703125 11.3560791015625
-33.1064453125 25.5494384765625 12.3193359375
-57.738525390625 18.0391845703125 19.3133544921875
18.00244140625 12.912841796875 -14.3538818359375
17.72705078125 10.1982421875 -5.17333984375
59.551513671875 16.674072265625 -29.376220703125
19.691162109375 13.3604736328125 -22.311279296875
-24.590576171875 23.168701171875 23.039306640625
-60.328369140625 15.508056640625 -13.4339599609375
-3.262451171875 28.77099609375 -2.6644287109375
-20.11181640625 23.8782958984375 22.3167724609375
-9.43359375 26.885498046875 7.421875
-5.4189453125 26.7138671875 14.86279296875
-4.17333984375 27.2557373046875 11.211181640625
-69.6103515625 14.7939453125 8.3477783203125
-56.646484375 15.01953125 19.9029541015625
15.187744140625 16.517822265625 -12.96630859375
-22.747802734375 26.5133056640625 9.514892578125
-79.806640625 47.0238037109375 -8.3594970703125
-38.544921875 11.72509765625 20.2606201171875
-16.441162109375 17.8316650390625 13.544921875
-16.868896484375 18.3948974609375 10.36572265625
-51.913818359375 4.2613525390625 26.0980224609375
-16.802001953125 19.6075439453125 16.805419921875
-77.987060546875 45.04541015625 -8.2459716796875
58.540771484375 4.3438720703125 -3.1982421875
-69.7509765625 39.6356201171875 8.4864501953125
-11.256103515625 23.332275390625 20.0352783203125
-62.805908203125 17.17626953125 -13.5758056640625
2.0751953125 57.267333984375 -31.873046875
40.341796875 26.5848388671875 -58.462890625
-62.229736328125 10.224853515625 21.3929443359375
9.8232421875 26.0911865234375 -22.5118408203125
-2.088623046875 34.288818359375 -15.098876953125
-56.23095703125 -0.0240478515625 38.981201171875
-53.878173828125 0.028076171875 41.812744140625
33.18603515625 4.292236328125 0.864501953125
-43.9921875 16.2279052734375 19.6341552734375
39.666748046875 22.07275390625 -45.6197509765625
-68.077392578125 17.23388671875 -6.119140625
34.17333984375 18.5035400390625 -34.015380859375
-35.169677734375 1.2540283203125 32.5081787109375
37.498291015625 5.340087890625 -4.908935546875
69.7578125 22.28662109375 -41.810546875
38.636474609375 5.4451904296875 -2.9134521484375
26.873779296875 8.288330078125 -19.4742431640625
-72.3837890625 13.816650390625 11.0726318359375
22.042236328125 8.4193115234375 -14.67724609375
35.9853515625 24.058349609375 -49.8680419921875
5.5478515625 30.0458984375 -16.99072265625
57.919921875 2.9410400390625 -12.470703125
-33.8369140625 50.965576171875 -25.048583984375
14.887451171875 14.8284912109375 -8.3924560546875
-61.98828125 5.4383544921875 24.0224609375
13.790283203125 17.927734375 -11.114501953125
35.119384765625 10.460205078125 -29.47119140625
31.591552734375 9.614013671875 -26.0250244140625
70.939453125 15.78076171875 -30.259521484375
57.1484375 28.48095703125 -66.9859619140625
-54.99365234375 42.841064453125 -0.897705078125
-44.671142578125 21.7669677734375 17.9046630859375
32.248291015625 3.6890869140625 -11.50439453125
54.361328125 27.930908203125 -65.45068359375
34.421142578125 6.69873046875 -15.760986328125
32.080810546875 6.176025390625 -13.8619384765625
47.29052734375 9.5538330078125 -26.010498046875
-38.38525390625 3.2320556640625 31.8084716796875
-49.517578125 0.7982177734375 40.3154296875
-35.5869140625 4.0609130859375 27.4964599609375
2.306640625 32.16259765625 -12.928955078125
38.435302734375 5.2232666015625 -15.210693359375
36.386474609375 6.771240234375 -16.54296875
17.131103515625 13.0537109375 -11.11328125
53.442626953125 5.4910888671875 -2.1783447265625
41.523681640625 5.067138671875 -12.08447265625
35.31640625 3.8092041015625 -8.3338623046875
32.601806640625 3.2735595703125 -6.8385009765625
59.01953125 9.1484375 -28.0185546875
-59.505615234375 17.972900390625 -18.3997802734375
58.618896484375 8.0303955078125 -23.0618896484375
55.092041015625 33.3558349609375 -79.603271484375
61.34033203125 7.6773681640625 -22.718505859375
-51.4794921875 3.6317138671875 30.0274658203125
55.2802734375 16.5068359375 -33.7899169921875
-56.5771484375 16.579345703125 -21.894775390625
54.03955078125 22.7105712890625 -52.262451171875
56.240234375 4.13720703125 -4.406982421875
-37.07763671875 49.4638671875 -23.1075439453125
-53.9404296875 3.3795166015625 32.03955078125
-11.61474609375 18.5889892578125 12.8394775390625
-25.921875 25.163330078125 12.19287109375
50.151611328125 4.2489013671875 -14.2034912109375
42.805908203125 2.7169189453125 -9.3316650390625
-60.2265625 24.116455078125 13.47998046875
13.97607421875 15.2598876953125 -5.0797119140625
22.44580078125 9.009765625 -18.567626953125
38.46240234375 13.2484130859375 -29.48681640625
-59.55322265625 43.3966064453125 2.2315673828125
-50.56884765625 24.2955322265625 14.2861328125
-38.38232421875 25.2603759765625 7.694091796875
-3.756103515625 34.0885009765625 -13.8758544921875
56.00439453125 24.29931640625 -56.501708984375
-28.755615234375 36.3446044921875 -20.6749267578125
40.537841796875 32.4752197265625 -71.771240234375
9.470947265625 24.3275146484375 -14.5736083984375
-71.27197265625 14.11474609375 0.36767578125
-40.679931640625 10.0089111328125 20.72705078125
32.892333984375 2.25146484375 5.22900390625
-63.8623046875 42.912841796875 4.3203125
56.875 16.9403076171875 -37.310546875
-47.2470703125 2.6357421875 32.59130859375
68.70703125 8.7958984375 -27.65576171875
-7.249267578125 39.9400634765625 -26.0283203125
-2.29833984375 40.5927734375 -25.5086669921875
6.491455078125 29.5404052734375 -19.9595947265625
-41.86865234375 5.0853271484375 26.176025390625
-1.369384765625 35.7015380859375 -18.6480712890625
53.1767578125 7.63134765625 -21.1546630859375
43.87939453125 5.940185546875 -17.4693603515625
46.169677734375 5.8736572265625 -13.5390625
-20.0859375 33.9598388671875 -13.467529296875
51.29248046875 4.2158203125 -12.245849609375
62.494140625 6.404296875 -18.196044921875
-30.83251953125 32.115966796875 -8.7135009765625
-41.0205078125 25.78271484375 8.2286376953125
18.273681640625 15.5634765625 -22.7955322265625
70.973388671875 4.9031982421875 -14.9132080078125
65.199951171875 3.9232177734375 -11.9315185546875
55.590576171875 2.191162109375 -8.282470703125
23.00146484375 13.0771484375 -27.94921875
20.023193359375 14.6708984375 -26.1337890625
-81.986083984375 44.9866943359375 -6.516357421875
-27.3759765625 31.6964111328125 -9.2073974609375
-47.052001953125 48.7685546875 -18.484619140625
12.122314453125 16.9637451171875 -2.337646484375
20.27685546875 10.169677734375 -14.39453125
-41.98193359375 29.8101806640625 -1.5140380859375
-48.526123046875 47.09619140625 -15.71484375
-2.47021484375 42.2996826171875 -28.2296142578125
42.724853515625 24.08203125 -44.987060546875
-39.27197265625 6.8717041015625 22.4739990234375
1.522705078125 31.1781005859375 -8.9246826171875
-52.968017578125 7.7216796875 21.5728759765625
3.631591796875 59.213623046875 -35.5111083984375
-79.237548828125 44.4044189453125 -5.3177490234375
32.77392578125 22.1297607421875 -39.6190185546875
28.88330078125 9.4686279296875 -28.4295654296875
-0.125 36.0816650390625 -20.6817626953125
-53.19921875 42.681640625 -1.790771484375
-40.90673828125 27.56591796875 6.472412109375
-47.292724609375 46.80322265625 -11.0230712890625
-61.704345703125 43.89306640625 -2.4205322265625
-53.942138671875 6.3914794921875 22.9249267578125
-43.904541015625 47.44775390625 -12.64794921875
-61.255615234375 44.337158203125 -6.228515625
36.5546875 30.99072265625 -68.67529296875
-67.18212890625 39.915283203125 7.6641845703125
18.116455078125 10.93408203125 -9.0592041015625
-13.91015625 36.0081787109375 -21.9644775390625
37.873291015625 28.9393310546875 -65.9693603515625
-64.9677734375 39.6893310546875 8.040771484375
33.69775390625 20.0694580078125 -37.0386962890625
8.63623046875 23.7669677734375 -10.14990234375
-51.04638671875 1.337890625 32.7327880859375
-57.513916015625 13.34375 19.9632568359375
-1.12109375 55.6912841796875 -34.223388671875
-11.803955078125 35.54052734375 -19.0968017578125
-45.1259765625 47.9117431640625 -19.0362548828125
-5.063720703125 52.76171875 -32.447509765625
52.739013671875 27.681640625 -62.2740478515625
52.83349609375 19.2955322265625 -37.4464111328125
-49.50244140625 22.9549560546875 16.518310546875
-24.023681640625 31.0028076171875 -3.8828125
0.1103515625 33.625244140625 -16.4515380859375
-10.56103515625 43.8466796875 -35.6588134765625
62.879150390625 2.511474609375 -6.683837890625
5.816162109375 26.3114013671875 -7.25341796875
-51.3525390625 44.559814453125 -4.48876953125
-60.84375 20.6949462890625 18.2325439453125
-17.6123046875 18.1512451171875 8.675048828125
72.92724609375 7.67724609375 -23.103515625
-42.53857421875 31.299072265625 -7.5648193359375
-37.1611328125 32.4248046875 -11.1744384765625
-19.8173828125 35.6416015625 -18.66796875
-17.75048828125 36.0552978515625 -19.8653564453125
-29.302490234375 34.0638427734375 -16.3863525390625
-25.148193359375 35.183349609375 -21.6766357421875
-20.197021484375 36.042724609375 -23.2266845703125
-27.690673828125 33.7940673828125 -11.3878173828125
-18.514404296875 31.89794921875 -30.4571533203125
-52.65478515625 24.0767822265625 15.096435546875
-20.327880859375 23.4571533203125 16.8077392578125
-58.69970703125 45.034423828125 -9.5677490234375
20.35205078125 8.787353515625 -10.6258544921875
-29.803955078125 34.958984375 -19.6143798828125
-21.828857421875 38.6953125 -26.2298583984375
-32.20703125 33.897705078125 -17.25146484375
21.39453125 5.36865234375 -5.240478515625
-29.34130859375 30.4217529296875 -5.643310546875
-4.669189453125 34.9508056640625 -15.833740234375
41.75634765625 31.44873046875 -67.369140625
-39.232177734375 28.29443359375 1.563720703125
-12.05126953125 33.8746337890625 -15.577880859375
-8.390380859375 33.9764404296875 -11.38037109375
-56.95556640625 24.45166015625 14.78515625
-9.155517578125 34.6510009765625 -19.2247314453125
32.1328125 6.9227294921875 -21.26513671875
59.14208984375 30.478271484375 -73.66064453125
70.20654296875 23.5078125 -50.462158203125
7.104736328125 26.7547607421875 -12.9569091796875
-51.9248046875 22.378173828125 17.255615234375
-12.019775390625 20.9344482421875 14.9742431640625
-23.2578125 32.479736328125 -11.1824951171875
-22.419189453125 28.072265625 2.2869873046875
-18.319091796875 28.89306640625 -0.0882568359375
-9.279296875 30.97998046875 -8.1036376953125
55.900390625 9.1929931640625 -27.230712890625
-36.775146484375 25.116943359375 11.4210205078125
-8.077392578125 30.8206787109375 -4.7955322265625
-29.82568359375 26.2142333984375 10.3370361328125
-11.792236328125 29.7261962890625 0.8704833984375
-27.0166015625 25.9114990234375 17.3721923828125
-11.34375 30.36279296875 -4.86474609375
-33.48291015625 25.9473876953125 7.7977294921875
-15.898193359375 28.8226318359375 4.0662841796875
-19.97509765625 28.3330078125 3.159423828125
-28.186767578125 26.5260009765625 9.551025390625
-16.998779296875 31.9644775390625 -24.2052001953125
-2.47509765625 28.51416015625 1.0302734375
-17.229248046875 31.4049072265625 -28.43994140625
-50.367919921875 2.2515869140625 30.501220703125
-57.778564453125 22.21923828125 16.8505859375
-33.859619140625 33.5833740234375 -16.4588623046875
-39.686279296875 15.43115234375 19.837646484375
-15.354736328125 22.1068115234375 26.4658203125
29.080078125 3.7095947265625 -9.1229248046875
57.9853515625 22.892822265625 -51.41455078125
54.77490234375 5.66015625 -17.5211181640625
-41.8916015625 20.38330078125 18.4241943359375
53.995849609375 24.7120361328125 -56.0841064453125
12.484375 24.4708251953125 -23.9656982421875
-50.164306640625 21.923583984375 17.9832763671875
-31.5791015625 50.4041748046875 -24.6878662109375
-57.5986328125 6.1337890625 23.314208984375
-65.656494140625 18.1329345703125 -10.11181640625
9.936279296875 24.4940185546875 -18.6463623046875
-70.69970703125 36.67822265625 19.963623046875
-74.090087890625 12.4039306640625 10.3868408203125
-72.8544921875 12.9415283203125 6.7645263671875
34.573974609375 4.1314697265625 -12.6197509765625
-10.549072265625 24.35888671875 18.5821533203125
-8.9892578125 40.868896484375 -29.6968994140625
21.14599609375 9.7725830078125 -16.455322265625
-55.181884765625 4.36181640625 24.9322509765625
1.509521484375 58.87353515625 -35.130126953125
-49.58984375 17.195556640625 -24.259033203125
-2.822265625 55.7470703125 -35.512451171875
-18.403076171875 17.216064453125 13.8455810546875
-53.955078125 16.1199951171875 -22.7791748046875
-65.525634765625 15.6190185546875 -8.0538330078125
-15.6064453125 17.4066162109375 15.9224853515625
36.489990234375 21.7344970703125 -45.274169921875
-51.466064453125 48.8175048828125 -16.75537109375
-63.62646484375 15.5411376953125 -1.47119140625
-54.05126953125 45.7708740234375 -10.3177490234375
-49.80419921875 46.74755859375 -14.0452880859375
-37.5322265625 48.9342041015625 -18.451416015625
-58.316162109375 44.53759765625 -4.0455322265625
-64.6884765625 43.0511474609375 1.7579345703125
-55.32275390625 17.4337158203125 -14.779052734375
-40.082275390625 48.322509765625 -15.96044921875
40.321533203125 4.2783203125 -5.8988037109375
-66.825439453125 42.3702392578125 5.5301513671875
-50.3095703125 18.1356201171875 -20.841796875
60.2958984375 22.4656982421875 -43.8450927734375
-56.622802734375 42.029052734375 1.546875
-4.18994140625 52.3836669921875 -30.7791748046875
-63.916259765625 41.0794677734375 5.7109375
-68.450439453125 15.1484375 -4.4130859375
34.729736328125 5.317626953125 -2.9197998046875
-58.4794921875 17.3245849609375 -19.73193359375
36.92822265625 31.888671875 -71.042724609375
-15.612548828125 20.481689453125 12.840087890625
36.19677734375 18.3231201171875 -35.2330322265625
52.6220703125 33.935546875 -76.7860107421875
42.9755859375 30.19482421875 -62.1865234375
67.9033203125 10.39404296875 -27.8306884765625
70.23193359375 11.05419921875 -29.70361328125
-12.649658203125 40.2012939453125 -31.47607421875
-38.708740234375 5.9132080078125 23.884521484375
55.51904296875 31.6639404296875 -75.6544189453125
-17.291015625 34.4154052734375 -28.461181640625
-3.613037109375 41.6641845703125 -29.9986572265625
-57.10791015625 3.0550537109375 30.775634765625
-57.082763671875 3.4171142578125 27.185546875
-43.569091796875 5.5509033203125 25.07763671875
-5.75439453125 33.092041015625 -11.5238037109375
34.05908203125 2.82568359375 2.562255859375
56.021240234375 21.533447265625 -47.9669189453125
1.13671875 58.1458740234375 -33.493896484375
-54.939453125 48.45361328125 -14.6510009765625
11.63916015625 18.408935546875 -6.965087890625
-47.107177734375 2.273193359375 30.4664306640625
-43.110595703125 2.8472900390625 28.9267578125
-58.191162109375 -0.060791015625 36.555419921875
42.59521484375 28.99072265625 -58.242919921875
59.12939453125 25.39208984375 -55.5784912109375
38.104736328125 20.949462890625 -42.538330078125
-59.503662109375 2.5198974609375 32.7197265625
70.185791015625 22.1217041015625 -45.416748046875
-17.707275390625 22.3970947265625 18.64453125
25.98095703125 10.8343505859375 -27.4534912109375
-21.36376953125 42.1654052734375 -34.2188720703125
-14.050048828125 22.0762939453125 23.948486328125
55.284423828125 17.030029296875 -36.113037109375
-60.406005859375 13.2403564453125 19.9674072265625
-71.047607421875 15.068603515625 -1.112548828125
66.361328125 5.5491943359375 -16.76318359375
13.290771484375 19.86767578125 -17.7115478515625
-32.048583984375 50.841796875 -26.3507080078125
16.086669921875 15.9239501953125 -14.6790771484375
3.1650390625 32.8966064453125 -19.0565185546875
-5.176513671875 40.35498046875 -27.2291259765625
-57.81396484375 16.710205078125 -9.537841796875
55.58935546875 3.7305908203125 -13.904052734375
-76.228271484375 46.9776611328125 -9.67333984375
39.139892578125 2.6656494140625 2.8978271484375
-74.089111328125 13.12255859375 4.740478515625
41.46337890625 8.5811767578125 -24.574951171875
-64.740966796875 16.08349609375 -10.0394287109375
-1.300048828125 34.877197265625 -16.6807861328125
3.7822265625 29.916748046875 -10.3798828125
-46.995849609375 25.708251953125 11.606689453125
-25.085693359375 40.7376708984375 -28.49951171875
-80.52392578125 44.0113525390625 -3.2152099609375
36.796630859375 3.380615234375 -0.5128173828125
-36.712890625 10.75341796875 20.4420166015625
-56.22119140625 27.9759521484375 6.2117919921875
-5.18115234375 24.5809326171875 17.7518310546875
7.33154296875 29.667236328125 -21.59228515625
-12.322021484375 36.423583984375 -20.64599609375
-13.780517578125 31.043701171875 -30.96630859375
2.91064453125 29.8175048828125 -7.4891357421875
-56.09814453125 18.4080810546875 -24.0953369140625
52.819580078125 19.096435546875 -35.4725341796875
30.01806640625 9.158935546875 -23.7109375
29.22314453125 8.8131103515625 -21.3804931640625
-56.6162109375 44.9453125 -5.7061767578125
-60.00732421875 44.258056640625 -3.6571044921875
-41.767578125 48.1285400390625 -16.420166015625
-54.485107421875 45.5406494140625 -8.6302490234375
-43.04248046875 47.82275390625 -15.1746826171875
-46.663330078125 26.5118408203125 8.82275390625
-39.662353515625 27.946044921875 4.438720703125
-7.960205078125 34.3248291015625 -14.25537109375
-32.2197265625 29.894775390625 -4.4681396484375
-12.498779296875 33.2769775390625 -10.231201171875
44.729248046875 3.24072265625 -10.427734375
-14.929931640625 32.3343505859375 -7.4505615234375
-13.619384765625 22.5025634765625 20.29443359375
26.261962890625 5.3211669921875 -13.5953369140625
28.5830078125 5.56884765625 -12.766845703125
-6.89208984375 40.6353759765625 -27.617431640625
71.7314453125 19.0233154296875 -36.9962158203125
-35.989990234375 29.9608154296875 -5.704345703125
-67.96875 38.4249267578125 16.4248046875
-6.145263671875 28.3170166015625 -0.654541015625
48.539306640625 7.1983642578125 -22.008544921875
-33.911376953125 25.6004638671875 10.6610107421875
33.5888671875 5.173095703125 -4.5274658203125
66.75146484375 2.017333984375 -8.7381591796875
18.85400390625 12.874755859375 -17.1710205078125
38.0126953125 24.3651123046875 -53.04248046875
64.044189453125 2.9053955078125 -8.96826171875
49.2978515625 6.85498046875 -18.9075927734375
43.455078125 5.337890625 -12.043701171875
51.2236328125 7.0474853515625 -18.0904541015625
36.124267578125 4.4263916015625 -13.36328125
-10.698974609375 25.0948486328125 20.4068603515625
-52.380859375 20.4500732421875 18.527587890625
-69.934814453125 35.18896484375 20.93603515625
-46.64013671875 6.9063720703125 22.147705078125
-4.50537109375 28.270263671875 0.5787353515625
29.672607421875 7.8316650390625 -19.5440673828125
-13.084716796875 26.4959716796875 6.1185302734375
-1.24658203125 28.808837890625 -0.169677734375
-1.6328125 51.8238525390625 -26.56494140625
-6.51220703125 41.1746826171875 -29.2291259765625
-2.006591796875 48.0281982421875 -25.784912109375
-42.65771484375 1.41943359375 37.9305419921875
-68.363525390625 14.34033203125 -0.8426513671875
-42.3662109375 10.2574462890625 20.38720703125
43.941162109375 2.6058349609375 -6.6007080078125
64.025146484375 6.5030517578125 -17.0035400390625
-32.286865234375 26.8358154296875 3.77734375
-15.78857421875 22.6361083984375 23.6724853515625
-3.77685546875 26.7086181640625 15.683349609375
-3.0166015625 30.1651611328125 -3.6717529296875
65.215576171875 7.5650634765625 -23.125244140625
40.43896484375 23.3533935546875 -49.903076171875
-11.628662109375 22.2939453125 25.2208251953125
26.104736328125 8.97216796875 -24.5355224609375
-44.138671875 3.9849853515625 27.9844970703125
41.238525390625 21.8685302734375 -42.8209228515625
-12.084228515625 32.817626953125 -25.7437744140625
-52.75537109375 46.3760986328125 -14.5318603515625
52.826171875 4.3536376953125 -11.43994140625
-25.4033203125 28.55517578125 1.133544921875
-27.224365234375 40.6356201171875 -27.2515869140625
-52.47998046875 18.1156005859375 -17.555908203125
-23.485595703125 38.955078125 -29.567626953125
-15.264892578125 36.121337890625 -18.5948486328125
-53.652587890625 46.1627197265625 -11.9801025390625
-47.657470703125 15.8656005859375 19.5892333984375
-55.730224609375 44.3135986328125 -1.5029296875
-24.715576171875 37.8402099609375 -23.4051513671875
14.661865234375 18.0062255859375 -15.158935546875
4.1376953125 31.3916015625 -16.7879638671875
6.441162109375 23.7086181640625 -1.93408203125
62.9150390625 4.0093994140625 -14.6541748046875
40.264404296875 28.964599609375 -64.32666015625
-24.707763671875 38.4990234375 -28.3677978515625
-9.804443359375 40.9205322265625 -31.3758544921875
-5.263427734375 41.4742431640625 -30.448974609375
3.6552734375 31.54345703125 -14.273681640625
-2.69970703125 40.7022705078125 -27.1766357421875
60.59765625 3.239501953125 -11.6435546875
43.759765625 8.47509765625 -20.23974609375
-55.3359375 25.69140625 7.87548828125
-53.466064453125 3.3133544921875 30.38427734375
-42.025146484375 6.2991943359375 22.7822265625
39.925537109375 27.1326904296875 -60.033935546875
57.175537109375 26.3416748046875 -61.92822265625
-44.622802734375 30.635009765625 -3.885498046875
-47.924560546875 30.048095703125 -2.7142333984375
-17.362060546875 35.779296875 -16.5474853515625
38.2880859375 9.381103515625 -25.6519775390625
36.777099609375 14.812744140625 -30.080078125
-42.89697265625 19.08935546875 18.9910888671875
42.76953125 23.884033203125 -47.4217529296875
-9.8974609375 27.927490234375 2.6212158203125
9.329345703125 19.94091796875 -1.3861083984375
-59.26953125 19.289306640625 18.75830078125
38.376708984375 25.435791015625 -55.7601318359375
11.01611328125 21.031005859375 -11.418212890625
55.948974609375 30.2889404296875 -73.31201171875
40.11767578125 6.6341552734375 -2.7041015625
-55.29541015625 24.972412109375 11.9361572265625
-47.061767578125 26.62060546875 7.166259765625
-21.540771484375 31.6800537109375 -7.1263427734375
-3.421875 35.37255859375 -18.2794189453125
-7.934326171875 34.69873046875 -17.962890625
-15.031005859375 30.1654052734375 -6.557861328125
-52.82421875 25.4835205078125 10.3404541015625
-33.920166015625 28.7923583984375 4.148193359375
-37.589599609375 28.56591796875 1.1864013671875
-44.980224609375 27.364990234375 2.6781005859375
-43.759033203125 27.412841796875 3.93994140625
19.906005859375 8.9959716796875 -8.99169921875
-5.90771484375 34.65380859375 -14.6239013671875
-64.18701171875 15.9088134765625 0.2508544921875
-5.763671875 55.0404052734375 -34.321533203125
-54.4970703125 45.3695068359375 -6.933837890625
-46.837890625 47.3328857421875 -15.67919921875
39.450439453125 29.50048828125 -66.3160400390625
-49.845703125 46.1488037109375 -8.10791015625
-51.099853515625 46.142333984375 -9.8310546875
43.591064453125 35.2940673828125 -71.157470703125
33.532958984375 5.2745361328125 -1.335205078125
-50.33154296875 4.403564453125 26.929443359375
-46.2294921875 23.4957275390625 15.7667236328125
-61.91064453125 17.8736572265625 19.73193359375
-9.313720703125 30.4833984375 -3.180419921875
-30.205322265625 26.57080078125 6.2257080078125
-28.609619140625 26.2618408203125 11.59375
-3.155029296875 31.838623046875 -7.97412109375
18.2041015625 16.7469482421875 -25.847900390625
-24.3818359375 26.2432861328125 9.89013671875
-69.635009765625 38.4022216796875 14.2777099609375
-69.60546875 38.828125 10.0545654296875
-36.523193359375 18.41845703125 19.207763671875
-34.82763671875 11.6514892578125 20.209716796875
43.271728515625 33.294189453125 -68.444580078125
12.97607421875 17.534423828125 -8.336181640625
-59.795166015625 -0.6031494140625 39.7005615234375
-48.95947265625 20.16015625 18.4371337890625
-45.897705078125 2.1787109375 31.6495361328125
-59.535888671875 16.0938720703125 -16.6302490234375
-52.68359375 0.3145751953125 40.645751953125
-58.21923828125 -0.4615478515625 40.5286865234375
-33.5986328125 4.4984130859375 25.948974609375
-38.75830078125 3.4971923828125 28.6214599609375
12.766357421875 21.1033935546875 -18.7449951171875
34.106689453125 20.3251953125 -39.015869140625
-12.44580078125 29.8912353515625 -26.97021484375
-23.762939453125 23.4888916015625 21.0135498046875
-21.715576171875 23.97998046875 19.013427734375
-12.297119140625 26.2391357421875 9.813232421875
42.6572265625 27.334716796875 -55.1529541015625
-30.95361328125 28.903076171875 2.47705078125
-10.7958984375 22.73583984375 21.9822998046875
-35.872314453125 2.8209228515625 32.0843505859375
8.02587890625 26.447021484375 -16.299072265625
58.78955078125 17.730224609375 -35.2171630859375
23.45703125 4.9840087890625 -8.4920654296875
7.814208984375 22.9769287109375 -4.9444580078125
-65.698486328125 15.1595458984375 0.947021484375
-13.414306640625 33.1341552734375 -24.4537353515625
11.670654296875 17.690185546875 -4.2410888671875
-35.4169921875 49.9058837890625 -23.473876953125
54.048095703125 20.6898193359375 -45.27197265625
57.155517578125 30.4285888671875 -74.4930419921875
64.83447265625 8.337646484375 -25.7630615234375
-12.022216796875 22.4012451171875 23.58447265625
36.456298828125 3.6976318359375 -5.5924072265625
-19.07958984375 23.0406494140625 19.625244140625
51.244140625 5.9049072265625 -15.1182861328125
10.33447265625 24.90234375 -20.6336669921875
-13.965576171875 31.8624267578125 -28.3709716796875
-11.567626953125 21.210693359375 11.30419921875
23.721435546875 7.636474609375 -15.99755859375
-40.559814453125 29.1065673828125 -2.0625
60.314453125 19.5029296875 -36.1910400390625
11.0537109375 20.388671875 -9.4832763671875
-58.100341796875 15.9205322265625 19.6949462890625
56.72119140625 32.6422119140625 -79.2100830078125
55.660400390625 19.861572265625 -44.9501953125
-71.811767578125 13.491943359375 8.9334716796875
-21.79052734375 41.93896484375 -32.559326171875
-14.30224609375 43.2388916015625 -34.9036865234375
34.330078125 10.1932373046875 -27.923095703125
-17.635009765625 17.8255615234375 11.9046630859375
-74.843505859375 12.349365234375 8.314208984375
-45.088623046875 50.0941162109375 -20.4500732421875
-17.47900390625 21.1395263671875 17.546630859375
-0.44287109375 29.6793212890625 -4.59521484375
-28.685302734375 27.930908203125 2.70751953125
38.683349609375 4.4193115234375 -1.1207275390625
11.31103515625 23.5333251953125 -20.832763671875
-42.2841796875 22.4920654296875 17.2010498046875
-66.7529296875 14.5257568359375 -0.4031982421875
-13.72412109375 16.2667236328125 13.2041015625
-12.957763671875 16.3626708984375 14.861083984375
-48.933349609375 4.3077392578125 35.88037109375
-8.47802734375 24.302490234375 18.968994140625
-54.498779296875 24.7550048828125 15.2491455078125
-17.8203125 32.1270751953125 -7.8975830078125
-9.482421875 25.7047119140625 17.60546875
-56.76220703125 1.10302734375 34.37939453125
12.690673828125 22.3487548828125 -22.2271728515625
-38.16845703125 50.69091796875 -23.3731689453125
-49.179931640625 29.5828857421875 0.1551513671875
-34.26513671875 33.0374755859375 -13.181640625
-25.983154296875 34.9010009765625 -20.0394287109375
-28.49072265625 34.0123291015625 -14.71435546875
-23.52783203125 35.0386962890625 -17.9189453125
40.468017578125 20.896484375 -40.123046875
29.377685546875 5.95263671875 -15.4779052734375
-2.100830078125 45.118408203125 -23.2056884765625
44.565673828125 8.7587890625 -23.3607177734375
1.631103515625 28.7816162109375 1.0615234375
31.918701171875 6.3045654296875 -3.92138671875
-2.23779296875 43.0 -23.496337890625
45.826904296875 6.44580078125 -19.75732421875
41.068603515625 28.3084716796875 -61.139404296875
-18.65576171875 27.291748046875 7.5523681640625
-54.25146484375 5.74658203125 24.419677734375
39.912353515625 15.2523193359375 -30.013671875
-37.230224609375 6.8250732421875 22.850830078125
52.2978515625 29.46630859375 -65.7684326171875
-24.8173828125 31.2618408203125 -7.607666015625
-50.768798828125 25.85400390625 9.5599365234375
-52.39111328125 25.8734130859375 7.053466796875
-25.677734375 30.565185546875 -1.857666015625
-34.275146484375 29.5242919921875 -3.6876220703125
-52.4375 25.2086181640625 13.644775390625
-29.35302734375 30.255615234375 -3.9954833984375
-13.69091796875 33.644775390625 -15.612548828125
59.40087890625 4.9158935546875 -13.3248291015625
37.6953125 21.875732421875 -46.456298828125
40.35693359375 4.7872314453125 -10.944580078125
-11.29931640625 33.4456787109375 -27.739013671875
42.383056640625 22.8431396484375 -43.5118408203125
-24.803466796875 34.281494140625 -12.154052734375
38.705322265625 7.57177734375 -18.398193359375
-46.517333984375 8.3704833984375 21.2430419921875
-41.93505859375 3.43505859375 26.2034912109375
59.78564453125 8.7440185546875 -25.712646484375
-59.21533203125 22.9925537109375 16.6031494140625
16.4404296875 17.6080322265625 -22.0977783203125
-16.685791015625 29.1219482421875 -0.0537109375
-2.7236328125 32.2269287109375 -11.2476806640625
-39.661865234375 24.302490234375 15.46337890625
-36.763671875 25.282470703125 9.7799072265625
-27.810302734375 26.1280517578125 14.07275390625
-5.2021484375 31.4697265625 -7.19677734375
-18.7099609375 29.0841064453125 -2.5584716796875
-22.40771484375 28.23779296875 0.64599609375
-13.510498046875 24.18994140625 22.3231201171875
69.086669921875 8.062255859375 -25.404052734375
-65.12548828125 14.956298828125 -2.3956298828125
41.63232421875 21.6182861328125 -41.2398681640625
39.670166015625 21.54150390625 -43.267333984375
-56.25048828125 20.8746337890625 18.2318115234375
37.584716796875 7.44482421875 -21.581298828125
-14.255859375 34.8739013671875 -17.520751953125
-47.806396484375 22.841552734375 16.900146484375
-17.808349609375 21.9560546875 26.040771484375
-52.2548828125 0.8509521484375 35.88623046875
-51.060302734375 1.137451171875 34.7193603515625
-39.142578125 3.60205078125 27.0238037109375
-43.51708984375 2.631591796875 30.5076904296875
36.84619140625 23.0252685546875 -48.7562255859375
-55.025390625 0.4227294921875 36.22509765625
40.8544921875 21.9732666015625 -44.418212890625
-57.173583984375 11.8046875 20.45263671875
-11.287109375 30.641357421875 -28.110107421875
52.37841796875 19.56201171875 -33.41650390625
39.686279296875 22.353271484375 -48.4010009765625
-21.683837890625 24.433349609375 14.518798828125
-22.964111328125 23.3968505859375 23.07373046875
-15.532958984375 26.0302734375 7.2928466796875
-21.6611328125 24.762939453125 11.2498779296875
61.720703125 3.01220703125 -7.767578125
14.356689453125 16.2298583984375 -9.774169921875
-55.1298828125 15.7283935546875 19.626953125
34.19140625 27.412109375 -54.412353515625
70.192626953125 4.074951171875 -11.9171142578125
-37.1611328125 0.65869140625 35.6326904296875
55.16015625 3.6982421875 -9.984375
57.25244140625 16.353515625 -33.8021240234375
61.349365234375 4.7530517578125 -14.53173828125
24.871337890625 9.211181640625 -22.9130859375
-38.029541015625 19.8125 18.6866455078125
-34.786376953125 20.2672119140625 18.7552490234375
56.7783203125 25.340087890625 -58.4078369140625
-11.46435546875 27.122314453125 3.7294921875
-9.173095703125 23.0040283203125 21.609619140625
-53.124267578125 3.812744140625 28.8651123046875
-41.161376953125 2.7237548828125 32.94189453125
56.44677734375 19.0784912109375 -41.84228515625
13.5166015625 15.4359130859375 -3.0213623046875
-49.36474609375 17.782470703125 -22.12451171875
35.229248046875 7.8719482421875 -23.4969482421875
-34.41455078125 4.02685546875 29.5081787109375
-71.20703125 13.6583251953125 1.934814453125
-66.74169921875 14.689208984375 -2.0245361328125
52.109619140625 1.9608154296875 -6.7427978515625
-0.0185546875 57.2708740234375 -34.8927001953125
-11.93505859375 17.78271484375 14.3240966796875
-38.38134765625 21.724853515625 17.843505859375
-59.961181640625 7.6300048828125 21.62158203125
-15.30078125 29.3685302734375 -25.8045654296875
60.31689453125 30.40380859375 -71.240234375
-41.266845703125 15.058837890625 19.771728515625
30.82275390625 8.392822265625 -20.6492919921875
37.4775390625 16.366943359375 -31.472412109375
-14.90869140625 18.45703125 14.07373046875
42.109130859375 32.83740234375 -70.109375
-54.356689453125 12.2401123046875 20.108154296875
-12.79443359375 18.7864990234375 9.1807861328125
-40.934326171875 13.4122314453125 19.82568359375
-5.929931640625 29.8211669921875 -1.2216796875
53.6396484375 21.3720703125 -46.801513671875
-48.23486328125 6.642822265625 22.513916015625
33.1513671875 9.8717041015625 -26.3831787109375
28.07177734375 8.8861083984375 -23.752197265625
-4.816162109375 54.2115478515625 -33.1287841796875
35.88427734375 10.3720703125 -27.4990234375
37.060302734375 10.6541748046875 -28.647705078125
-26.921630859375 25.1005859375 19.2947998046875
-35.472412109375 6.154541015625 23.0899658203125
7.77099609375 23.584228515625 -6.4832763671875
-16.762939453125 35.449951171875 -22.047119140625
19.842041015625 10.19873046875 -12.389892578125
8.780029296875 21.369140625 -2.7672119140625
11.31689453125 23.2232666015625 -19.244384765625
36.874267578125 3.633056640625 -7.1849365234375
-55.434814453125 0.7880859375 33.4700927734375
-2.62890625 49.7479248046875 -27.2646484375
-58.409912109375 5.820068359375 25.2998046875
38.746337890625 8.1612548828125 -24.2427978515625
28.959716796875 5.4659423828125 -11.2000732421875
26.6279296875 5.0611572265625 -10.4700927734375
32.09716796875 6.4117431640625 -16.1998291015625
30.92578125 6.130859375 -15.0555419921875
32.498779296875 6.66259765625 -18.1397705078125
9.786865234375 20.02783203125 -4.6422119140625
25.089599609375 4.0357666015625 -6.6793212890625
7.9169921875 28.17724609375 -21.3931884765625
8.220458984375 23.507080078125 -8.139892578125
45.351806640625 9.281982421875 -26.051513671875
27.668701171875 9.607177734375 -27.22265625
54.272216796875 4.1435546875 -1.6400146484375
23.7490234375 7.020263671875 -14.109130859375
34.908935546875 1.6790771484375 3.9178466796875
-44.578857421875 30.0360107421875 -1.04443359375
57.058349609375 8.447021484375 -23.7899169921875
55.9130859375 8.480224609375 -25.755126953125
52.026123046875 7.58642578125 -22.3436279296875
65.971923828125 10.1231689453125 -27.8714599609375
45.02734375 5.946044921875 -15.892333984375
38.603515625 17.815185546875 -34.085205078125
16.318359375 12.5841064453125 -7.568115234375
-61.963134765625 3.0123291015625 28.78125
-61.072265625 8.8929443359375 21.0889892578125
52.251708984375 31.04541015625 -68.0794677734375
58.35595703125 25.748046875 -58.759521484375
57.468994140625 8.853515625 -27.2750244140625
15.0439453125 18.9808349609375 -19.873779296875
-45.9453125 5.29736328125 24.2294921875
-48.740966796875 4.6663818359375 26.5640869140625
-50.3203125 4.564453125 25.3338623046875
-61.8798828125 2.266357421875 31.87158203125
-44.2763671875 28.2559814453125 1.1583251953125
37.616943359375 2.1749267578125 2.812255859375
-55.700439453125 22.3553466796875 16.8623046875
58.26708984375 5.8887939453125 -19.0589599609375
47.02734375 3.1544189453125 -7.695556640625
35.011474609375 28.467529296875 -60.784912109375
19.273193359375 12.94677734375 -18.7647705078125
13.9462890625 15.9735107421875 -7.79150390625
-29.37109375 29.4381103515625 2.567626953125
-13.535400390625 31.39306640625 -7.19140625
67.906982421875 4.8248291015625 -15.70458984375
39.797119140625 30.5711669921875 -67.4510498046875
-37.6123046875 29.4114990234375 -4.1163330078125
55.129638671875 7.3087158203125 -20.808837890625
-53.065185546875 0.4595947265625 38.6507568359375
-56.615234375 0.080810546875 37.383544921875
-53.830810546875 0.7093505859375 35.05810546875
54.437744140625 21.6419677734375 -48.36669921875
58.29248046875 2.83935546875 -10.921875
71.365234375 5.249267578125 -16.4237060546875
56.3896484375 2.764892578125 -12.8883056640625
54.878173828125 16.2935791015625 -32.226318359375
-9.8369140625 32.157958984375 -9.57958984375
59.140380859375 23.559814453125 -50.54248046875
15.824462890625 13.6885986328125 -8.9908447265625
68.29833984375 5.1710205078125 -17.2159423828125
41.2900390625 18.6419677734375 -31.1661376953125
56.814697265625 23.11181640625 -53.801025390625
14.927001953125 13.8939208984375 -4.9173583984375
-58.314208984375 0.700439453125 34.708740234375
70.95263671875 20.1949462890625 -39.647705078125
-52.830810546875 16.378173828125 -20.69189453125
-11.52294921875 32.1932373046875 -9.1533203125
-37.618408203125 28.150390625 5.305908203125
27.683349609375 9.1688232421875 -25.6964111328125
32.5078125 19.2132568359375 -33.12890625
23.557861328125 11.052490234375 -25.8345947265625
31.568359375 4.9447021484375 0.5985107421875
-32.647705078125 32.85107421875 -9.0103759765625
-55.33349609375 18.570556640625 18.98876953125
59.14697265625 22.329345703125 -47.065673828125
52.56640625 34.6346435546875 -74.7281494140625
-46.68798828125 27.39794921875 3.1116943359375
26.114501953125 8.455322265625 -22.228759765625
-45.422119140625 17.130126953125 19.4259033203125
-15.978515625 34.250732421875 -29.7303466796875
54.319091796875 3.9063720703125 -4.8343505859375
52.25439453125 31.5859375 -70.4647216796875
-27.3349609375 30.0859375 0.579345703125
-34.934814453125 18.793212890625 19.2738037109375
60.267578125 25.9697265625 -52.3096923828125
-53.573486328125 27.6412353515625 5.29248046875
35.382568359375 29.982421875 -66.3294677734375
33.28515625 6.9285888671875 -19.6820068359375
50.782958984375 10.0823974609375 -26.3262939453125
38.71630859375 7.72900390625 -19.956787109375
43.011474609375 8.75927734375 -24.152587890625
-2.02490234375 44.8101806640625 -24.9412841796875
-62.4658203125 15.42041015625 -10.9771728515625
30.5478515625 6.52978515625 -18.1593017578125
-44.974365234375 0.6868896484375 38.999267578125
71.720703125 18.1741943359375 -34.317138671875
69.82666015625 5.1324462890625 -16.04931640625
9.93701171875 24.1016845703125 -16.2481689453125
-4.1259765625 38.5439453125 -25.3690185546875
45.403076171875 5.33251953125 -12.048583984375
-49.111572265625 17.12158203125 -25.90673828125
-10.915771484375 36.61328125 -28.57373046875
36.875 4.2215576171875 -10.241943359375
-51.46484375 43.012939453125 -4.3173828125
31.056884765625 3.056884765625 -6.8712158203125
38.430908203125 4.5947265625 -11.76171875
71.37939453125 10.88134765625 -27.757080078125
51.226806640625 6.614013671875 -16.58154296875
-11.428955078125 36.562255859375 -23.977783203125
69.398193359375 23.448486328125 -48.079345703125
-53.674560546875 18.649658203125 18.9912109375
-48.173095703125 2.385498046875 38.2515869140625
-49.94580078125 4.2982177734375 28.533447265625
54.34326171875 29.5955810546875 -70.15966796875
-8.109130859375 30.365478515625 -0.2825927734375
-53.933837890625 44.10986328125 -1.97412109375
46.194091796875 6.4818115234375 -18.17529296875
64.035888671875 6.6590576171875 -18.5501708984375
40.868408203125 2.252197265625 -7.439208984375
71.395263671875 8.385986328125 -25.355224609375
65.580322265625 6.9527587890625 -19.2908935546875
18.485595703125 11.7330322265625 -12.1363525390625
49.3154296875 7.60205078125 -23.52490234375
60.796142578125 6.576904296875 -3.9876708984375
10.73095703125 18.662353515625 -3.252197265625
16.93798828125 16.5321044921875 -21.0438232421875
60.528076171875 3.2618408203125 -4.9737548828125
66.73046875 4.099365234375 -11.513916015625
58.2626953125 2.4119873046875 -6.68505859375
-71.44287109375 39.271728515625 9.7191162109375
-6.72607421875 23.5909423828125 19.21923828125
35.875732421875 26.7620849609375 -56.070556640625
72.511962890625 4.70751953125 -14.9468994140625
36.27490234375 28.0555419921875 -62.419189453125
-70.867431640625 40.6781005859375 8.2576904296875
-59.160888671875 5.727294921875 23.6484375
-56.827392578125 46.676513671875 -11.4674072265625
-58.525634765625 6.7144775390625 22.2244873046875
-52.87109375 49.3773193359375 -17.53857421875
-76.6796875 44.9757080078125 -7.3934326171875
-50.316162109375 49.9056396484375 -19.1883544921875
-54.56640625 49.1396484375 -17.574462890625
-36.6123046875 5.5836181640625 24.1951904296875
-57.3193359375 25.0589599609375 8.185302734375
-56.709228515625 48.4989013671875 -14.212158203125
-9.693115234375 43.5203857421875 -34.4276123046875
-24.644775390625 23.989990234375 19.4581298828125
0.3896484375 52.3929443359375 -24.344970703125
-40.067626953125 48.536376953125 -18.0809326171875
-0.303955078125 55.4246826171875 -30.388671875
-45.595703125 47.168212890625 -12.2596435546875
-57.912109375 44.340087890625 -1.4920654296875
-42.21044921875 47.7698974609375 -13.46044921875
-38.79248046875 48.8421630859375 -19.326416015625
-36.67919921875 49.1807861328125 -19.705810546875
-38.349609375 49.2008056640625 -22.2861328125
-57.99560546875 48.1058349609375 -12.109619140625
8.4794921875 26.408935546875 -18.3607177734375
-61.711669921875 16.1126708984375 -13.746826171875
-23.488037109375 38.379638671875 -25.43408203125
41.15869140625 25.290283203125 -53.333984375
-61.91455078125 15.841796875 -5.1390380859375
59.1484375 21.4713134765625 -44.3582763671875
-80.545654296875 44.473876953125 -6.1697998046875
28.978515625 6.37255859375 -17.3909912109375
17.475341796875 14.22314453125 -14.949462890625
-45.706298828125 20.6162109375 18.5059814453125
-11.8623046875 40.7564697265625 -32.6656494140625
-28.033203125 33.0648193359375 -9.4034423828125
-68.3623046875 38.7493896484375 12.6151123046875
-66.255126953125 39.129150390625 11.81494140625
-72.565185546875 38.16015625 12.5262451171875
-70.91357421875 37.9698486328125 16.784912109375
-66.234375 39.4273681640625 8.858642578125
